6.958140 -6.335860 0.164262
6.965170 -6.346710 0.493842
6.972110 -6.355260 0.825365
6.981030 -6.367860 1.160200
6.960360 -6.357910 -0.494051
6.966620 -6.368090 -0.164751
6.962510 -6.384440 0.164890
6.951800 -6.379080 0.494470
6.985110 -6.411900 0.829548
6.983610 -6.415020 1.164340
6.964580 -6.406500 -0.495936
6.956120 -6.403210 -0.165030
6.960750 -6.427690 0.165379
6.950030 -6.422290 0.495936
6.978780 -6.451120 0.831466
6.981580 -6.458220 1.167750
6.946570 -6.434850 -0.496250
6.951330 -6.443760 -0.165449
6.958770 -6.471020 0.165868
6.953880 -6.471000 0.497820
6.972260 -6.490370 0.833383
6.979330 -6.501500 1.171160
6.950720 -6.488460 -0.165972
6.947820 -6.506200 0.166147
6.960400 -6.522550 0.499913
6.972820 -6.536470 0.836172
6.973960 -6.542120 1.174090
3.744870 -3.515440 -0.449375
6.954250 -6.537330 -0.166601
6.949800 -6.553740 0.166740
6.953570 -6.561880 0.501064
6.968790 -6.578550 0.838438
6.965510 -6.580050 1.176530
3.725340 -3.521650 -0.448503
6.956080 -6.584940 -0.167194
6.952980 -6.602740 0.167369
6.950890 -6.605380 0.502530
6.977560 -6.633040 0.842273
6.971270 -6.631690 1.181400
3.720240 -3.541500 -0.449375
6.956210 -6.631260 -0.167753
6.951570 -6.647700 0.167892
6.943660 -6.644790 0.503681
6.973070 -6.675260 0.844539
6.971010 -6.677960 1.185300
3.687720 -3.535160 -0.446935
13.026900 -12.553500 0.948118
3.640950 -3.514800 -0.442751
3.740980 -3.616410 -0.090822
12.941500 -12.549900 0.314667
12.928500 -12.546100 0.944141
3.591520 -3.491380 -0.438219
3.698240 -3.600160 -0.090089
12.864700 -12.562900 0.313864
12.847500 -12.554800 0.941419
3.565070 -3.489960 -0.436476
3.655670 -3.583650 -0.089356
12.752300 -12.540400 0.312189
12.763700 -12.560400 0.938488
3.518820 -3.468810 -0.432292
3.626060 -3.579530 -0.088937
12.667200 -12.544000 0.311176
12.638900 -12.524700 0.932522
3.458610 -3.433350 -0.426366
3.589430 -3.568200 -0.088344
12.597900 -12.562800 0.310548
12.580400 -12.549700 0.931266
3.570510 -3.573010 -0.088170
12.520900 -12.569100 0.309676
12.525200 -12.582200 0.930429
3.392430 -3.415010 -0.421137
3.558020 -3.585450 -0.088170
12.479700 -12.615500 0.309745
12.479800 -12.624400 0.930324
3.364300 -3.409220 -0.419045
3.527230 -3.579330 -0.087716
12.466500 -12.690400 0.310513
12.462200 -12.695000 0.932313
3.339820 -3.408140 -0.417476
3.500730 -3.577330 -0.087367
12.445800 -12.758200 0.311107
12.466600 -12.788400 0.935976
3.318180 -3.409780 -0.416256
3.472890 -3.573750 -0.086983
12.423500 -12.824500 0.311665
12.449700 -12.860600 0.938070
3.285490 -3.399850 -0.413641
3.439570 -3.564270 -0.086459
12.425800 -12.916800 0.312852
12.429700 -12.929900 0.939954
3.268080 -3.405550 -0.412944
3.414660 -3.563260 -0.086145
12.448300 -13.030900 0.314562
12.391300 -12.980400 0.940477
3.232810 -3.392410 -0.409981
3.384280 -3.556320 -0.085691
12.422000 -13.094600 0.315051
12.354200 -13.032300 0.941105
3.223690 -3.406570 -0.410329
3.344370 -3.539050 -0.084993
12.402300 -13.165600 0.315714
12.333300 -13.101500 0.942989
3.196770 -3.401830 -0.408412
3.318310 -3.536120 -0.084644
12.363100 -13.216100 0.315889
12.317500 -13.176600 0.945292
3.157690 -3.383840 -0.404926
3.295040 -3.535980 -0.084365
12.322300 -13.265000 0.316028
12.279600 -13.228300 0.945920
3.248290 -3.504150 -0.586679
3.143150 -3.391920 -0.404577
3.273170 -3.537180 -0.084121
12.309800 -13.344700 0.316901
12.260000 -13.295300 0.947804
3.233960 -3.511980 -0.586192
3.120500 -3.391140 -0.403182
3.345940 -3.638690 -0.259063
3.254660 -3.540660 -0.083946
12.281700 -13.403100 0.317320
12.225300 -13.346200 0.948537
3.182100 -3.478740 -0.578879
3.106550 -3.398530 -0.402834
3.233460 -3.541090 -0.083702
12.258700 -13.467500 0.317878
12.198800 -13.411000 0.950107
3.149920 -3.467790 -0.575223
3.081870 -3.394060 -0.401091
3.194220 -3.522730 -0.083004
12.237100 -13.538300 0.318541
12.181300 -13.486100 0.952410
3.107210 -3.444860 -0.569617
3.053990 -3.387040 -0.398999
3.179220 -3.530890 -0.082934
12.209800 -13.603300 0.319065
12.179500 -13.579100 0.955969
3.091190 -3.451250 -0.568886
3.039490 -3.394710 -0.398650
3.153550 -3.527060 -0.082585
12.202200 -13.690600 0.320112
12.169300 -13.663300 0.958899
3.061980 -3.442730 -0.565718
3.013060 -3.388920 -0.396733
3.137240 -3.533560 -0.082480
12.188800 -13.772100 0.321020
12.155900 -13.744600 0.961621
3.040740 -3.442990 -0.564011
2.992710 -3.390980 -0.395687
3.106370 -3.523490 -0.081991
12.160400 -13.837100 0.321543
12.150000 -13.834900 0.964970
3.026090 -3.450590 -0.563524
2.972970 -3.392410 -0.394641
3.125110 -3.568530 -0.248596
3.080880 -3.519260 -0.081642
12.137200 -13.913200 0.322276
12.130500 -13.910400 0.967273
3.006910 -3.454180 -0.562305
2.942800 -3.381730 -0.392201
3.112630 -3.579410 -0.248596
3.060710 -3.520940 -0.081433
12.126400 -13.994200 0.323219
12.121100 -13.997900 0.970413
2.992840 -3.461120 -0.561818
2.942700 -3.405550 -0.393770
3.100750 -3.589720 -0.248596
3.044480 -3.527060 -0.081328
12.127000 -14.094000 0.324545
12.098200 -14.070500 0.972507
2.970390 -3.459500 -0.559868
2.923610 -3.406220 -0.392724
3.029540 -3.534630 -0.081258
12.119100 -14.194600 0.978159
2.937690 -3.445680 -0.555968
2.906530 -3.410340 -0.392027
3.005520 -3.531480 -0.080944
3.705010 -4.367250 0.099967
12.131400 -14.310000 0.983183
2.916670 -3.445310 -0.554262
2.986720 -3.534310 -0.080770
3.689740 -4.380160 0.099967
12.113600 -14.390400 0.985800
2.903350 -3.453950 -0.554018
2.856420 -3.400540 -0.388540
2.967940 -3.537050 -0.080595
12.081200 -14.454100 0.987266
2.878550 -3.448820 -0.551581
2.830500 -3.393660 -0.386623
2.909120 -3.490390 -0.238129
2.951740 -3.542780 -0.080490
12.103400 -14.578600 0.993023
2.860770 -3.450710 -0.550362
2.819230 -3.403020 -0.386623
2.897530 -3.500020 -0.238129
2.934870 -3.546390 -0.080351
12.105800 -14.685500 0.997419
2.841130 -3.451480 -0.548900
2.802270 -3.406690 -0.385926
2.914860 -3.547340 -0.080141
12.102500 -14.791600 1.001610
2.819670 -3.451110 -0.547193
2.777160 -3.401500 -0.384182
2.889200 -3.542510 -0.079792
3.395040 -4.177600 0.093964
12.086000 -14.877100 1.004540
2.807610 -3.460930 -0.547193
2.752730 -3.395700 -0.382439
2.869260 -3.543250 -0.079583
12.089300 -14.982400 1.008930
2.788640 -3.460940 -0.545731
2.741450 -3.404810 -0.382439
2.860000 -3.555860 -0.079653
12.092000 -15.087900 1.013330
2.769710 -3.460870 -0.544268
2.730150 -3.413880 -0.382439
2.843210 -3.559070 -0.079513
12.068000 -15.160700 1.015530
2.755750 -3.466930 -0.543781
2.713850 -3.416680 -0.381742
2.824830 -3.558950 -0.238129
2.825170 -3.560650 -0.079339
12.053000 -15.261800 1.019190
2.725830 -3.457700 -0.540612
2.693320 -3.417680 -0.380696
2.786440 -3.538380 -0.236035
2.800350 -3.557330 -0.079025
12.094600 -15.424800 1.027250
2.715570 -3.468280 -0.540856
2.676460 -3.420790 -0.379999
2.755000 -3.522430 -0.234360
2.789140 -3.568660 -0.079059
2.701010 -3.474610 -0.540369
2.657760 -3.420200 -0.378953
2.757390 -3.550960 -0.235617
2.771770 -3.572050 -0.078920
2.679170 -3.471440 -0.538419
2.648240 -3.432610 -0.379302
2.732780 -3.544750 -0.234570
2.754400 -3.575370 -0.078780
2.658580 -3.469740 -0.536713
2.630800 -3.435970 -0.378605
2.708250 -3.538400 -0.233523
2.729750 -3.569080 -0.078431
2.645250 -3.477420 -0.536469
2.611560 -3.435620 -0.377559
2.692850 -3.545120 -0.233314
2.702770 -3.559470 -0.078012
2.630700 -3.483460 -0.535981
2.592350 -3.435170 -0.376513
2.670840 -3.541750 -0.232476
2.686720 -3.564100 -0.077908
2.622710 -3.496930 -0.536713
2.578550 -3.440560 -0.376164
2.668650 -3.563370 -0.233314
2.671290 -3.568180 -0.077803
2.602190 -3.494920 -0.535006
2.568320 -3.450690 -0.376339
2.647290 -3.559380 -0.232476
2.657620 -3.575880 -0.077768
2.582890 -3.494410 -0.533544
2.551520 -3.453220 -0.375641
2.647900 -3.586270 -0.233628
2.634440 -3.570660 -0.077454
2.571850 -3.505000 -0.533788
2.534740 -3.455680 -0.374944
2.631820 -3.590660 -0.233314
2.606600 -3.558860 -0.077000
2.561940 -3.517170 -0.534275
2.525010 -3.467730 -0.375293
2.614570 -3.593370 -0.232895
2.596510 -3.571170 -0.077070
2.549650 -3.526090 -0.534275
2.509940 -3.473730 -0.374944
2.576280 -3.566850 -0.230592
2.579350 -3.573720 -0.076930
2.532700 -3.528520 -0.533300
2.500130 -3.485710 -0.375293
2.534100 -3.535690 -0.227975
2.569190 -3.585960 -0.077000
2.522050 -3.541010 -0.533788
2.492570 -3.500910 -0.375990
2.513640 -3.533120 -0.227243
2.556650 -3.594900 -0.077000
2.512590 -3.552590 -0.534275
2.478030 -3.506330 -0.375641
2.534180 -3.587110 -0.230174
2.534860 -3.590740 -0.076721
2.503590 -3.566220 -0.535006
2.466390 -3.514530 -0.375641
2.551460 -3.638450 -0.232895
2.524610 -3.602840 -0.076791
2.501340 -3.589590 -0.537200
2.459800 -3.531290 -0.376513
2.522770 -3.624390 -0.231430
2.512020 -3.611630 -0.076791
2.487670 -3.596670 -0.536956
2.451990 -3.546410 -0.377210
2.582760 -3.738340 -0.238129
2.509620 -3.635190 -0.077105
2.478470 -3.610240 -0.537688
2.446360 -3.564810 -0.378256
2.491260 -3.635680 -0.076930
2.470320 -3.625430 -0.538663
2.440630 -3.583200 -0.379302
2.483060 -3.650970 -0.077070
3.530870 -5.215080 0.550999
2.464320 -3.643900 -0.540125
2.428110 -3.591700 -0.379302
2.479250 -3.672870 -0.077349
2.463760 -3.670610 -0.542806
2.424440 -3.613390 -0.380696
2.468640 -3.684820 -0.077419
2.454230 -3.684140 -0.543537
2.419540 -3.633440 -0.381916
2.464620 -3.706740 -0.077698
2.437620 -3.685640 -0.542562
2.415630 -3.655160 -0.383311
2.454520 -3.718230 -0.077768
2.433460 -3.707400 -0.544512
2.407230 -3.670240 -0.384008
2.443710 -3.730120 -0.077838
2.426350 -3.726280 -0.545975
2.400920 -3.688640 -0.385054
2.435040 -3.745340 -0.077977
2.682510 -4.140180 0.086110
2.468940 -3.819320 -0.558405
2.396680 -3.710380 -0.386449
2.432790 -3.770620 -0.078326
2.388670 -3.725020 -0.387146
2.429320 -3.794240 -0.078640
2.381000 -3.741740 -0.388017
2.418200 -3.806070 -0.078710
2.408340 -3.814040 -0.394641
2.405970 -3.816180 -0.078745
2.394290 -3.819780 -0.553531
2.402180 -3.839820 -0.079059
2.609840 -4.186370 0.086110
2.380940 -3.828120 -0.553531
2.398250 -3.863470 -0.079374
2.394670 -3.880330 -0.559868
2.395240 -3.888840 -0.079723
2.580550 -4.204490 0.086110
2.367270 -3.864550 -0.556455
2.386500 -3.903590 -0.079862
2.566590 -4.213020 0.086110
2.356510 -3.875770 -0.556943
2.381840 -3.925160 -0.080141
2.552610 -4.221510 0.086110
2.349110 -3.894170 -0.558405
2.374320 -3.943730 -0.080351
2.517280 -4.196100 0.085412
2.313080 -3.864870 -0.553043
2.268080 -3.792680 -0.386623
2.169790 -3.629760 0.822005
2.177020 -3.643300 -0.222428
2.368740 -3.965720 -0.080630
2.169860 -3.634190 1.134150
2.150170 -3.614110 0.073405
2.137110 -3.595010 0.219183
2.147550 -3.614020 0.367797
2.167940 -3.649770 -0.672355
2.140460 -3.604940 0.514776
2.286740 -3.852840 -0.550118
2.143850 -3.613530 0.665472
2.144010 -3.613800 -0.367623
2.138080 -3.605230 0.814754
2.138820 -3.607920 -0.219811
2.157780 -3.641350 0.977187
2.151380 -3.632000 -0.073684
2.129950 -3.597240 1.120170
2.131440 -3.611260 0.073195
2.121500 -3.597280 0.218869
2.131890 -3.616340 0.367274
2.121080 -3.599450 -0.661718
2.121820 -3.602130 0.513314
2.147380 -3.646980 -0.519651
2.118200 -3.598860 0.661405
2.119260 -3.600660 -0.365531
2.125480 -3.612670 0.814754
2.121150 -3.606760 -0.219288
2.137160 -3.635420 0.973588
2.121470 -3.610180 -0.073091
2.119330 -3.607990 1.121200
2.116800 -3.615230 0.073126
2.108930 -3.604670 0.218869
2.115230 -3.616890 0.366577
2.105520 -3.601720 -0.660779
2.105220 -3.602660 0.512339
2.109600 -3.611600 -0.513557
2.100640 -3.597700 0.659841
2.105670 -3.606320 -0.365357
2.109890 -3.614980 0.813610
2.107540 -3.612420 -0.219183
2.108740 -3.615920 0.966390
2.098780 -3.600280 -0.072742
2.098940 -3.602010 1.117060
2.096140 -3.608760 0.072846
2.093330 -3.606830 0.218555
2.092600 -3.607010 0.364834
2.088970 -3.602210 -0.659528
2.095620 -3.615140 0.513070
2.094990 -3.615500 -0.513070
2.081140 -3.593040 0.657651
2.083090 -3.596400 -0.363614
2.091350 -3.612130 0.811320
2.093920 -3.618020 -0.219078
2.084400 -3.603020 0.960991
2.083200 -3.602400 -0.072637
2.074760 -3.589240 1.110850
2.079530 -3.609130 0.072707
2.076740 -3.607190 0.218136
2.076020 -3.607390 0.364137
2.066530 -3.592360 -0.656399
2.074080 -3.606940 0.510876
2.082360 -3.622790 -0.513070
2.069570 -3.602000 0.657963
2.069530 -3.601930 -0.363439
2.071890 -3.607490 0.808649
2.075310 -3.614920 -0.218450
2.069870 -3.606890 0.960091
2.065640 -3.600970 -0.072462
2.057410 -3.588080 1.108260
2.062950 -3.609420 0.072567
2.061160 -3.609210 0.217822
2.061440 -3.611150 0.363788
2.048100 -3.589250 -0.654522
2.052630 -3.598640 0.508683
2.061830 -3.616250 -0.511120
2.055030 -3.605770 0.657338
2.056940 -3.609130 -0.363439
2.055400 -3.607880 0.807122
2.053790 -3.606520 -0.217508
2.054370 -3.609020 0.958741
2.053050 -3.608160 -0.072462
2.042010 -3.590200 1.106710
2.050340 -3.616600 0.072567
2.040680 -3.602480 0.216985
2.045870 -3.613120 0.363265
2.038480 -3.601540 -0.655460
2.033210 -3.593690 0.506977
2.044310 -3.614780 -0.509901
2.036600 -3.602600 0.655460
2.040410 -3.609350 -0.362742
2.036030 -3.603070 0.804451
2.039220 -3.610190 -0.217299
2.031230 -3.597500 0.953792
2.035530 -3.606600 -0.072288
2.033260 -3.604040 1.108780
2.034770 -3.618510 0.072462
2.026130 -3.606100 0.216776
2.027390 -3.609820 0.362219
2.025900 -3.608630 -0.655460
2.017740 -3.595570 0.506245
2.021970 -3.604580 -0.507464
2.020140 -3.602800 0.654209
2.020000 -3.602550 -0.361348
2.024400 -3.611870 0.804832
2.024650 -3.613800 -0.217090
2.019610 -3.606270 0.954242
2.014140 -3.597980 -0.071974
2.018780 -3.607750 1.107750
2.016280 -3.615110 0.072253
2.009640 -3.606170 0.216357
2.006060 -3.601210 0.360650
2.001760 -3.594970 -0.651706
2.007110 -3.606060 0.506733
2.008410 -3.609880 -0.507220
2.003710 -3.602920 0.652958
2.001600 -3.599130 -0.360302
2.004150 -3.605180 0.801779
2.016880 -3.629570 -0.217613
2.004170 -3.608190 0.952893
2.000600 -3.603240 -0.071939
1.996800 -3.597880 1.102570
1.986220 -3.590630 0.071625
1.995110 -3.609670 0.216148
1.993470 -3.608190 0.360650
1.983470 -3.591560 -0.649829
1.984920 -3.595670 0.504295
1.991000 -3.608180 -0.506002
1.993990 -3.615080 0.653896
1.987100 -3.602600 -0.359953
1.994390 -3.617310 0.802924
1.987810 -3.606860 -0.215834
1.988740 -3.610040 0.951543
1.983180 -3.601440 -0.071764
1.980500 -3.598060 1.100500
1.969830 -3.590530 0.071485
1.977370 -3.605760 0.215519
1.977040 -3.608140 0.359953
1.965220 -3.588070 -0.647952
1.965680 -3.590390 0.502589
1.975540 -3.609890 -0.505270
1.975350 -3.609550 0.651706
1.966870 -3.595530 -0.358559
1.966690 -3.596690 0.796818
1.975200 -3.613770 -0.215834
1.963050 -3.593020 0.945244
1.971230 -3.608000 -0.071764
1.966710 -3.601210 1.099460
1.958870 -3.598790 0.071520
1.959040 -3.602110 0.214891
1.961570 -3.609770 0.359430
1.956140 -3.599770 -0.648890
1.952820 -3.595140 0.502346
1.955030 -3.600720 -0.503077
1.957090 -3.606000 0.649829
1.959050 -3.611130 -0.359430
1.954750 -3.603200 0.796818
1.958450 -3.611520 -0.215310
1.947410 -3.592650 0.943445
1.950050 -3.599030 -0.071450
1.950450 -3.601260 1.097390
1.946290 -3.605610 0.071520
1.943610 -3.603650 0.214577
1.945810 -3.609240 0.358733
1.936070 -3.592670 -0.646387
1.938370 -3.598440 0.501858
1.942450 -3.607520 -0.503077
1.941680 -3.607590 0.648890
1.935110 -3.596900 -0.357339
1.945880 -3.616910 0.798345
1.941100 -3.609540 -0.214787
1.930240 -3.590850 0.941195
1.933690 -3.598770 -0.071310
1.930550 -3.594430 1.093250
1.924260 -3.594750 0.071171
1.924430 -3.598090 0.213845
1.922240 -3.597010 0.356816
1.922890 -3.599740 -0.646387
1.925800 -3.605190 0.501858
1.927040 -3.609020 -0.502346
1.920700 -3.598670 0.646074
1.916920 -3.593080 -0.356293
1.925220 -3.610160 0.795292
1.927860 -3.616630 -0.214787
1.914320 -3.592740 0.939845
1.915470 -3.594910 -0.071101
1.916180 -3.597740 1.092220
1.906380 -3.592950 0.070996
1.912790 -3.606550 0.213949
1.906870 -3.598420 0.356293
1.899220 -3.585480 -0.642633
1.905140 -3.598190 0.499908
1.912570 -3.612220 -0.501858
1.904430 -3.598360 0.644823
1.902500 -3.596230 -0.355944
1.900670 -3.594300 0.790331
1.906820 -3.607450 -0.213845
1.899660 -3.593900 0.938496
1.902910 -3.601570 -0.071101
1.900900 -3.599280 1.090660
1.891670 -3.593940 0.070892
1.890590 -3.593430 0.212798
1.894930 -3.604720 0.356293
1.890070 -3.597000 -0.643571
1.885810 -3.590420 0.497958
1.892280 -3.602730 -0.499664
1.892490 -3.604660 0.644823
1.887780 -3.597230 -0.355421
1.893300 -3.609270 0.792239
1.893920 -3.611980 -0.213740
1.882300 -3.589820 0.935796
1.885390 -3.597240 -0.070892
1.882680 -3.593590 1.087040
1.876960 -3.594880 0.070787
1.875270 -3.594690 0.212484
1.880200 -3.605690 0.355770
1.875390 -3.598000 -0.642633
1.872060 -3.593140 0.497471
1.874190 -3.598740 -0.498202
1.878070 -3.607740 0.644197
1.875850 -3.603470 -0.355421
1.870450 -3.594630 0.787660
1.876400 -3.607610 -0.213112
1.859870 -3.577350 0.930847
1.869130 -3.596700 -0.070752
1.874570 -3.608710 1.089630
1.864400 -3.601410 0.070787
1.857200 -3.590570 0.211856
1.863030 -3.603380 0.354898
1.859200 -3.597500 -0.641381
1.856780 -3.594360 0.496739
1.859790 -3.601740 -0.497714
1.854590 -3.593210 0.640443
1.859600 -3.602910 -0.354724
1.863290 -3.611610 0.789949
1.861970 -3.610590 -0.212903
1.846480 -3.582090 0.930398
1.848320 -3.587200 -0.070438
1.851350 -3.594620 1.083420
1.846340 -3.597220 0.070578
1.844660 -3.597030 0.211856
1.844990 -3.599220 0.353852
1.843020 -3.596940 -0.640130
1.844220 -3.600820 0.496739
1.845400 -3.604670 -0.497227
1.842040 -3.599660 0.640443
1.837310 -3.591960 -0.352981
1.840840 -3.598860 0.785751
1.846630 -3.611730 -0.212589
1.837510 -3.595450 0.932197
1.833970 -3.590070 -0.070368
1.835280 -3.594180 1.081350
1.826520 -3.589380 0.070298
1.830280 -3.599890 0.211647
1.822760 -3.588200 0.352109
1.820880 -3.586060 -0.637001
1.823550 -3.591300 0.494546
1.833700 -3.612860 -0.497471
1.824990 -3.597260 0.638878
1.822960 -3.594800 -0.352632
1.816100 -3.582820 0.780790
1.827960 -3.607790 -0.211961
1.819040 -3.591730 0.929498
1.820530 -3.594670 -0.070333
1.819230 -3.593670 1.079280
1.811550 -3.592480 0.070229
1.812310 -3.595560 0.211019
1.811120 -3.596320 0.352284
1.807470 -3.590630 -0.636688
1.805910 -3.589100 0.493327
1.815100 -3.608920 -0.496008
1.811540 -3.601840 0.638566
1.807710 -3.595800 -0.352109
1.801820 -3.585630 0.780027
1.808180 -3.599870 -0.211123
1.799500 -3.584130 0.925899
1.809760 -3.604580 -0.070403
1.802340 -3.591370 1.076690
1.796050 -3.591320 0.070089
1.789930 -3.582210 0.209867
1.801230 -3.607970 0.352806
1.791140 -3.587760 -0.635124
1.794000 -3.595070 0.493327
1.794260 -3.597150 -0.493571
1.793670 -3.597540 0.636688
1.795150 -3.602090 -0.352109
1.792540 -3.596860 0.781172
1.794460 -3.602270 -0.210914
1.783260 -3.581360 0.923649
1.789150 -3.594760 -0.070089
1.789800 -3.597640 1.076690
1.783500 -3.597560 0.070089
1.777410 -3.588430 0.209867
1.783060 -3.601420 0.351586
1.778600 -3.593990 -0.635124
1.775280 -3.588850 0.491621
1.777290 -3.594500 -0.492352
1.776720 -3.594920 0.635124
1.775250 -3.591950 -0.350540
1.778240 -3.599570 0.780409
1.780990 -3.606720 -0.210809
1.769020 -3.584060 0.922749
1.771280 -3.590220 -0.069879
1.768680 -3.586530 1.071510
1.764760 -3.591210 0.069844
1.763120 -3.591030 0.209658
1.760830 -3.587950 0.349669
1.762570 -3.593090 -0.633873
1.762740 -3.595030 0.491621
1.761240 -3.593550 -0.491377
1.762420 -3.597560 0.634498
1.757440 -3.587390 -0.349495
1.764800 -3.604000 0.780027
1.764870 -3.605740 -0.210391
1.757350 -3.591970 0.923199
1.756980 -3.592790 -0.069810
1.752760 -3.585740 1.069440
1.746960 -3.586560 0.069635
1.749700 -3.595370 0.209553
1.746550 -3.590490 0.349320
1.743970 -3.586780 -0.631682
1.745840 -3.592230 0.490402
1.751290 -3.605030 -0.492108
1.746400 -3.596580 0.633247
1.742300 -3.588120 -0.348972
1.746210 -3.597770 0.777356
1.746170 -3.599300 -0.209658
1.744810 -3.598080 0.923199
1.742680 -3.595300 -0.069740
1.741070 -3.593580 1.069960
1.732690 -3.589030 0.069565
1.730190 -3.587060 0.208716
1.735730 -3.600150 0.349669
1.724580 -3.578610 -0.629180
1.725540 -3.582210 0.488209
1.732660 -3.598600 -0.490402
1.732130 -3.599090 0.632621
1.726310 -3.587000 -0.348274
1.728530 -3.593230 0.775066
1.727540 -3.592770 -0.208925
1.726330 -3.591850 0.920050
1.730120 -3.601360 -0.069740
1.724340 -3.590930 1.067370
1.717560 -3.589650 0.069461
1.712490 -3.582270 0.208088
1.722300 -3.604390 0.349495
1.712080 -3.584610 -0.629180
1.708750 -3.579250 0.486990
1.714110 -3.592090 -0.488696
1.715300 -3.596200 0.631057
1.713780 -3.593010 -0.348274
1.707530 -3.581520 0.771250
1.711550 -3.591570 -0.208506
1.706240 -3.582020 0.916001
1.712380 -3.596550 -0.069530
1.710130 -3.593440 1.066330
1.704160 -3.593810 0.069426
1.698270 -3.584610 0.207878
1.702030 -3.594180 0.347926
1.698710 -3.588780 -0.628867
1.697940 -3.588780 0.487477
1.701560 -3.598050 -0.488696
1.696830 -3.589670 0.628867
1.696120 -3.588160 -0.347228
1.695860 -3.589230 0.771632
1.696450 -3.592100 -0.208192
1.690390 -3.580910 0.914201
1.693850 -3.589840 -0.069286
1.694280 -3.592390 1.064260
1.684800 -3.585260 0.069146
1.682130 -3.581190 0.207355
1.685240 -3.591080 0.347054
1.683650 -3.589320 -0.627928
1.682880 -3.589300 0.486746
1.686460 -3.598580 -0.487965
1.679890 -3.584540 0.626989
1.676820 -3.579620 -0.345834
1.680820 -3.589800 0.770487
1.686440 -3.603430 -0.208506
1.681190 -3.593850 0.916001
1.681090 -3.593630 -0.069251
1.670910 -3.573490 1.057020
1.667840 -3.579950 0.068937
1.671300 -3.590660 0.207564
1.672700 -3.596940 0.347054
1.665910 -3.582350 -0.625738
1.663430 -3.578650 0.484553
1.673680 -3.602350 -0.487721
1.669030 -3.593970 0.627615
1.664310 -3.585460 -0.345834
1.663120 -3.582890 0.767815
1.671120 -3.601760 -0.208088
1.664340 -3.588800 0.913301
1.668530 -3.599480 -0.069251
1.656800 -3.575800 1.055980
1.654490 -3.583940 0.068902
1.655410 -3.589220 0.207146
1.663260 -3.607890 0.347577
1.650910 -3.582760 -0.624799
1.645120 -3.571820 0.482846
1.656950 -3.599150 -0.486502
1.651520 -3.589000 0.625738
1.649080 -3.583710 -0.345137
1.645680 -3.577970 0.765526
1.651020 -3.591240 -0.207146
1.641230 -3.571560 0.907453
1.654290 -3.601640 -0.069181
1.631410 -3.553470 1.047700
1.639480 -3.584240 0.068797
1.633740 -3.574990 0.205994
1.640720 -3.591930 0.345485
1.633480 -3.577720 -0.622922
1.621930 -3.554060 0.479678
1.636960 -3.588660 -0.484309
1.630780 -3.576770 0.622609
1.635740 -3.587640 -0.344962
1.594920 -3.499730 0.747590
1.636820 -3.593340 -0.206936
1.577880 -3.465540 0.879109
1.635080 -3.592840 -0.068902
1.575800 -3.464180 1.019750
1.620350 -3.575370 0.068518
1.615480 -3.567930 0.205262
1.586280 -3.505060 0.336595
1.613650 -3.567200 -0.620106
1.586610 -3.509060 0.472853
1.613800 -3.570840 -0.481140
1.567870 -3.470830 0.603211
1.616640 -3.578800 -0.343568
1.562490 -3.460540 0.738049
1.584010 -3.509830 -0.201807
1.562560 -3.463920 0.877309
1.558940 -3.459100 1.016640
1.557900 -3.469720 0.066389
1.552340 -3.460570 0.198772
1.552840 -3.463310 0.332063
1.567260 -3.497100 -0.606966
1.551630 -3.463850 0.466028
1.551030 -3.464120 -0.466028
1.545250 -3.452840 0.599144
1.544730 -3.451660 -0.330843
1.552010 -3.469560 0.738812
1.549740 -3.466110 -0.198981
1.549670 -3.467570 0.876859
1.541450 -3.450800 -0.065970
1.543700 -3.457460 1.014570
1.535210 -3.451390 0.065935
1.535380 -3.455020 0.198144
1.537510 -3.461430 0.331366
1.531800 -3.450190 -0.597893
1.531480 -3.451100 0.463591
1.538920 -3.469510 -0.466028
1.530790 -3.452800 0.598205
1.527020 -3.444280 -0.329623
1.527960 -3.448030 0.733088
1.531970 -3.458720 -0.198249
1.529670 -3.455140 0.872360
1.529390 -3.456160 -0.065970
1.528500 -3.455760 1.012500
1.523960 -3.458550 0.065970
1.521700 -3.456700 0.197935
1.526220 -3.468600 0.331540
1.511790 -3.437430 -0.594764
1.516230 -3.449150 0.462616
1.521210 -3.462140 -0.464322
1.519520 -3.459930 0.598518
1.518190 -3.456890 -0.330320
1.517490 -3.456940 0.733851
1.516680 -3.456730 -0.197830
1.516810 -3.458670 0.871910
1.511700 -3.448650 -0.065726
1.520300 -3.469920 1.015090
1.508680 -3.456520 0.065830
1.505640 -3.452840 0.197411
1.514900 -3.475730 0.331715
1.504520 -3.453560 -0.596641
1.502590 -3.450790 0.462129
1.502780 -3.452870 -0.462372
1.509010 -3.468830 0.599144
1.502140 -3.453030 -0.329449
1.507760 -3.467610 0.734996
1.513360 -3.482150 -0.198981
1.503180 -3.460370 0.871010
1.506020 -3.468580 -0.066005
1.511260 -3.482300 1.017160
1.499780 -3.469110 0.065970
1.496740 -3.465400 0.197830
1.501970 -3.479170 0.331540
1.491670 -3.456970 -0.596328
1.498400 -3.474240 0.464566
1.493860 -3.465380 -0.463347
1.489860 -3.457750 0.596328
1.490080 -3.458260 -0.329449
1.497200 -3.476460 0.735759
1.495670 -3.474570 -0.198249
1.494170 -3.472760 0.872810
1.492330 -3.470140 -0.065935
1.492990 -3.473350 1.013020
1.486870 -3.472480 0.065935
1.486990 -3.476120 0.198144
1.485900 -3.475230 0.330669
1.484250 -3.473060 -0.598205
1.494060 -3.497700 0.467003
1.486440 -3.481530 -0.464810
1.486310 -3.482920 0.599770
1.480340 -3.468930 -0.329972
1.488140 -3.488890 0.737286
1.485100 -3.483440 -0.198458
1.485860 -3.486920 0.875060
1.483340 -3.482690 -0.066075
1.492210 -3.505210 1.020780
1.476310 -3.481330 0.066005
1.483420 -3.501520 0.199295
1.483080 -3.502410 0.332761
1.474430 -3.483670 -0.599144
1.497310 -3.539460 0.471878
1.478140 -3.495840 -0.466028
1.491060 -3.528120 0.606653
1.479080 -3.499770 -0.332412
1.500400 -3.551940 0.749498
1.474480 -3.492290 -0.198667
1.509290 -3.576470 0.896205
1.475060 -3.497060 -0.066249
1.506980 -3.574480 1.039420
1.478080 -3.519650 0.066633
1.483400 -3.534040 0.200865
1.500120 -3.577390 0.339384
1.476770 -3.523410 -0.605089
1.494150 -3.566640 0.474803
1.475130 -3.522950 -0.468953
1.493090 -3.565840 0.612285
1.481470 -3.539840 -0.335724
1.498600 -3.582510 0.754840
1.492330 -3.569270 -0.202750
1.499050 -3.587110 0.897555
1.489670 -3.564660 -0.067436
1.495860 -3.581240 1.039930
1.500970 -3.607620 0.068204
1.487150 -3.577930 0.203064
1.497560 -3.606520 0.341650
1.488560 -3.584850 -0.614788
1.484600 -3.577070 0.475534
1.482900 -3.576500 0.613223
1.481310 -3.574440 -0.338513
1.488960 -3.592900 0.755985
1.495010 -3.609260 -0.204738
1.478200 -3.570450 0.892156
1.480280 -3.577230 -0.067576
1.483350 -3.586440 1.039930
1.479990 -3.592500 0.067820
1.471610 -3.575710 0.202645
1.478010 -3.593040 0.339907
1.474530 -3.586370 -0.614162
1.472860 -3.584070 0.475778
1.476000 -3.593510 -0.476997
1.469650 -3.579830 0.612910
1.466420 -3.571960 -0.337816
1.474920 -3.594440 0.755222
1.477850 -3.603370 -0.204110
1.467210 -3.579200 0.893056
1.463990 -3.573130 -0.067401
1.467900 -3.584440 1.037860
1.462910 -3.586530 0.067611
1.459870 -3.582670 0.202750
1.461700 -3.588950 0.339036
1.456050 -3.576860 -0.611659
1.457350 -3.581830 0.474803
1.461950 -3.594960 -0.476509
1.454170 -3.577620 0.611659
1.449440 -3.565980 -0.336770
1.457190 -3.586840 0.752551
1.457750 -3.590000 -0.203064
1.451770 -3.577070 0.891256
1.452260 -3.580070 -0.067436
1.451740 -3.580590 1.035280
1.444390 -3.576780 0.067331
1.448850 -3.591450 0.202959
1.445440 -3.584790 0.338164
1.436910 -3.565430 -0.608843
1.441870 -3.579530 0.473828
1.449400 -3.600040 -0.476509
1.440940 -3.580840 0.611346
1.438470 -3.574710 -0.337118
1.435140 -3.568220 0.747590
1.439250 -3.580250 -0.202226
1.437820 -3.578500 0.890356
1.436770 -3.577690 -0.067296
1.435640 -3.576670 1.032690
1.430410 -3.578090 0.067262
1.427420 -3.574230 0.201703
1.433660 -3.591670 0.338339
1.425190 -3.572260 -0.609156
1.423480 -3.569790 0.471878
1.428740 -3.584790 -0.473828
1.429890 -3.589520 0.611972
1.425990 -3.579710 -0.337118
1.420500 -3.567740 0.746445
1.423050 -3.575970 -0.201703
1.417400 -3.563580 0.885407
1.425750 -3.586400 -0.067366
1.423140 -3.581660 1.032690
1.413500 -3.571900 0.067052
1.412000 -3.571760 0.201284
1.420380 -3.594800 0.338164
1.416340 -3.586400 -0.610720
1.411010 -3.574740 0.471878
1.416940 -3.591610 -0.474072
1.410110 -3.576110 0.608843
1.412020 -3.580960 -0.336770
1.408750 -3.574500 0.746826
1.411290 -3.582770 -0.201807
1.402100 -3.561260 0.883608
1.407370 -3.576470 -0.067087
1.413460 -3.593800 1.034760
1.401750 -3.578680 0.067087
1.395150 -3.565510 0.200656
1.399840 -3.579320 0.336247
1.407400 -3.600520 -0.612285
1.395630 -3.572250 0.470903
1.400790 -3.587280 -0.472853
1.391870 -3.566290 0.606340
1.396620 -3.578440 -0.336073
1.395560 -3.577570 0.746445
1.398050 -3.585820 -0.201703
1.391070 -3.569760 0.884508
1.389070 -3.566460 -0.066808
1.396700 -3.587910 1.031650
1.387080 -3.577960 0.066982
1.383320 -3.570110 0.200656
1.380860 -3.567470 0.334678
1.384140 -3.577770 -0.607592
1.387450 -3.588210 0.472366
1.386110 -3.586600 -0.472122
1.378610 -3.567200 0.605714
1.379810 -3.572150 -0.335027
1.390130 -3.600730 0.750261
1.382650 -3.583220 -0.201284
1.385620 -3.592780 0.889007
1.378670 -3.574770 -0.066878
1.388270 -3.601540 1.034240
1.373060 -3.576940 0.066878
1.373000 -3.580520 0.200970
1.374820 -3.589010 0.336247
1.368020 -3.571280 -0.605714
1.386900 -3.622450 0.476265
1.372790 -3.587470 -0.471634
1.374620 -3.594130 0.609469
1.368750 -3.580660 -0.335375
1.384490 -3.621830 0.753696
1.372900 -3.593380 -0.201598
1.387600 -3.633760 0.898005
1.369750 -3.588910 -0.067052
1.385330 -3.631630 1.041490
1.371210 -3.609750 0.067401
1.372540 -3.617030 0.202750
1.379160 -3.636390 0.340256
1.362550 -3.594500 -0.608843
1.384100 -3.653260 0.479678
1.368690 -3.614510 -0.474559
1.381650 -3.650640 0.618229
1.368940 -3.618960 -0.338513
1.382950 -3.656020 0.759801
1.373060 -3.631780 -0.203482
1.382480 -3.658640 0.902954
1.372050 -3.632950 -0.067785
1.383560 -3.665360 1.049770
1.370570 -3.646330 0.067995
1.362710 -3.629280 0.203168
1.381210 -3.682470 0.344091
1.359770 -3.627210 -0.613536
1.381090 -3.684090 0.483090
1.363030 -3.637860 -0.476997
1.375820 -3.673940 0.621358
1.371660 -3.664770 -0.342348
1.381240 -3.692320 0.766289
1.367430 -3.657370 -0.204634
1.377250 -3.685580 0.908352
1.369160 -3.663940 -0.068274
1.382250 -3.700930 1.058570
1.371820 -3.690690 0.068728
1.362550 -3.667710 0.205052
1.371120 -3.694740 0.344788
1.359460 -3.665280 -0.619168
1.375860 -3.711460 0.486015
1.364130 -3.679820 -0.481871
1.369170 -3.695390 0.624174
1.363700 -3.682610 -0.343568
1.381290 -3.732100 0.773540
1.364360 -3.688340 -0.206099
1.375160 -3.717550 0.915101
1.359830 -3.678080 -0.068448
1.380710 -3.736540 1.067370
1.360960 -3.698980 0.068797
1.358660 -3.694710 0.206308
1.366420 -3.719840 0.346706
1.358880 -3.701290 -0.624486
1.371750 -3.738370 0.488940
1.362860 -3.714140 -0.485771
1.367790 -3.729580 0.629180
1.361080 -3.713310 -0.346008
1.374310 -3.751410 0.776593
1.363110 -3.722860 -0.207774
1.376230 -3.758680 0.924099
1.360690 -3.718250 -0.069112
1.374280 -3.757430 1.072030
1.355530 -3.722260 0.069146
1.361450 -3.742600 0.208716
1.365650 -3.756180 0.349669
1.356710 -3.733620 -0.629180
1.370190 -3.772750 0.492840
1.360050 -3.746860 -0.489427
1.365540 -3.764040 0.634185
1.357620 -3.744260 -0.348449
1.375910 -3.794710 0.784607
1.357560 -3.746130 -0.208820
1.376370 -3.800110 0.933097
1.357230 -3.749300 -0.069600
1.369700 -3.785820 1.078760
1.354720 -3.760830 0.069775
1.354470 -3.764240 0.209658
1.361990 -3.789280 0.352284
1.351030 -3.760880 -0.632934
1.361040 -3.788720 0.494302
1.356350 -3.777750 -0.492840
1.361060 -3.792960 0.638253
1.349920 -3.763980 -0.349843
1.365970 -3.810810 0.786896
1.351230 -3.771770 -0.209972
1.364400 -3.810630 0.934447
1.354920 -3.784130 -0.070159
1.346970 -3.782730 0.070089
1.349360 -3.793640 0.211019
1.356760 -3.816540 0.354375
1.343850 -3.782330 -0.635750
1.355780 -3.818000 0.497471
1.353780 -3.814490 -0.496983
1.350760 -3.810210 -0.353678
1.347400 -3.802820 -0.211437
1.350380 -3.815470 -0.070647
1.342390 -3.811930 0.070543
1.342740 -3.817170 0.212065
1.344380 -3.828230 -0.642633
1.341120 -3.821070 -0.497227
1.343390 -3.831830 -0.355247
1.338070 -3.820930 -0.212170
2.330000 -6.690830 0.123668
2.312030 -6.665450 -0.617237
2.303580 -6.648580 -0.368759
2.264000 -6.538050 -0.120771
2.290560 -6.674970 -0.617411
2.303540 -6.720420 -0.372318
2.266940 -6.617410 -0.122097
2.283140 -6.725920 -0.621420
2.295780 -6.778700 -0.124924
2.928020 -8.735710 -0.482852
2.920280 -8.722740 -0.160562
2.887450 -8.715540 -0.481177
2.881020 -8.706300 -0.160073
2.853910 -8.716080 -0.480653
2.851230 -8.718210 -0.160108
2.885790 -8.871000 0.162831
2.815800 -8.707480 -0.479607
2.823240 -8.735720 -0.160248
2.780220 -8.706320 -0.478979
2.784520 -8.725050 -0.159864
2.744400 -8.698830 -0.478037
2.751640 -8.727090 -0.159724
2.717920 -8.715510 -0.478455
2.715550 -8.713250 -0.159306
2.683120 -8.705390 -0.477409
2.685700 -8.724590 -0.159340
2.645380 -8.696060 -0.476362
2.652910 -8.726260 -0.159201
2.605820 -8.674640 -0.474687
2.624930 -8.749330 -0.159445
2.580060 -8.699000 -0.475525
2.586420 -8.731600 -0.158957
2.554170 -8.723280 -0.476362
2.554240 -8.734820 -0.158852
2.520380 -8.720630 -0.475734
2.523180 -8.741760 -0.158817
2.492120 -8.737060 -0.476153
2.493750 -8.754360 -0.158887
2.458900 -8.736100 -0.475629
2.465340 -8.770710 -0.159026
2.448690 -8.817750 -0.479607
2.434100 -8.771130 -0.158887
2.422610 -8.837380 -0.480235
2.399190 -8.757940 -0.158503
2.378680 -8.791390 -0.477304
2.372250 -8.779770 -0.158747
2.346950 -8.795770 -0.477095
2.343140 -8.793800 -0.158852
2.304550 -8.759490 -0.474687
2.312930 -8.803860 -0.158887
2.277970 -8.782950 -0.475525
2.281690 -8.809940 -0.158852
2.373840 -9.238810 0.499913
2.248230 -8.800910 -0.476048
2.249930 -8.813980 -0.158782
2.247390 -8.862080 0.159585
2.331770 -9.208320 0.497820
2.226350 -8.837370 -0.477618
2.217410 -8.873750 0.159655
2.197420 -8.852840 -0.478037
2.191230 -8.841120 -0.158991
2.182630 -8.926420 -0.481596
2.162730 -8.858430 -0.159166
2.162480 -8.918170 0.160178
2.158000 -8.961170 -0.483061
2.129460 -8.856200 -0.158991
2.148050 -8.995680 0.161435
2.134090 -8.999740 -0.484736
2.096690 -8.855790 -0.158852
2.099020 -8.991580 -0.483898
2.070030 -8.874380 -0.159061
2.091570 -9.095810 -0.489132
2.045750 -8.910790 -0.159585
2.064220 -9.122540 -0.490179
2.025650 -8.966640 -0.160457
2.059390 -9.258720 -0.497087
2.079130 -9.503880 -0.509857
3.888720 -17.970800 0.963610
3.839500 -18.032499 0.966227
3.827260 -18.288200 0.979206
3.816500 -18.559700 0.993023
3.807060 -18.846901 1.007680
3.743190 -18.869900 1.008200
5.005590 -26.141001 0.464583
2.123830 -11.186500 -0.596735
2.139620 -11.488400 -0.612435
2.075360 -11.165000 -0.198224
2.106690 -11.535100 -0.614529
3.940060 -21.810600 1.161540
2.090620 -11.665900 -0.621123
3.867710 -21.823500 1.161540
3.830150 -21.810900 -0.386536
3.795880 -21.816900 0.386536
3.790530 -21.808701 1.160080
3.759500 -21.833300 -0.386710
3.715560 -21.828699 0.386501
3.708440 -21.832899 1.160600
3.684590 -21.900801 -0.387653
3.689200 -22.188499 1.178820
3.675370 -22.322001 -0.394878
3.663470 -22.469801 0.397391
3.681000 -22.627100 1.201420
4.106480 -25.752701 0.455194
4.015940 -25.762899 0.455124
1.581610 -12.211100 -0.645302
1.574920 -12.192800 -0.214595
1.556780 -12.203200 0.214734
1.552390 -12.202800 0.644674
1.552260 -12.218700 1.077590
1.543970 -12.256200 -0.647396
1.530600 -12.184400 -0.214350
1.513920 -12.206600 0.214700
1.510030 -12.210100 0.644779
1.511060 -12.236000 1.078640
1.496320 -12.221800 -0.645302
1.489760 -12.203500 -0.214595
1.472740 -12.223700 0.214909
1.466450 -12.207400 0.644360
1.467630 -12.235200 1.078120
1.454600 -12.234900 -0.645721
1.448090 -12.216600 -0.214734
1.427970 -12.210900 0.214595
1.422440 -12.200500 0.643732
1.424680 -12.238300 1.077940
1.409360 -12.218100 -0.644570
1.404530 -12.213600 -0.214595
1.385560 -12.217800 0.214630
1.382420 -12.209100 0.643942
1.381500 -12.239200 1.077590
1.366480 -12.221000 -0.644465
1.362690 -12.206300 -0.214385
1.344600 -12.218400 0.214560
1.339140 -12.207900 0.643628
1.336820 -12.226200 1.076020
1.325300 -12.219500 -0.644151
1.320500 -12.215000 -0.214455
1.308720 -12.286600 0.215677
1.317390 -12.409100 0.653990
1.324410 -12.496000 1.099380
1.305720 -12.486000 -0.219132
1.299830 -12.621300 0.221471
1.307510 -12.739500 0.671156
1.313270 -12.839700 1.129190
1.294350 -12.787000 -0.673564
1.299120 -12.856600 -0.225555
1.284190 -12.934400 0.226881
1.924730 -25.718201 0.450167
1.834240 -25.714701 0.449993
1.669580 -25.888300 0.452820
1.608260 -25.705799 -0.449574
1.568130 -25.712299 0.449644
1.524070 -25.805099 -0.451215
1.474910 -25.735800 0.449958
1.433090 -25.794300 -0.450935
1.391500 -25.776501 0.450586
1.341590 -25.771200 -0.450447
1.317340 -26.094801 0.456066
1.250460 -25.751699 -0.450028
1.206630 -25.681801 0.448771
1.159750 -25.738001 -0.449714
1.113010 -25.698000 0.448981
1.069650 -25.735901 -0.449609
1.027870 -25.703501 0.449015
0.722632 -18.983400 -0.331596
0.938504 -25.716999 0.449190
0.653046 -18.889799 -0.329920
0.850048 -25.760099 0.449888
0.523677 -18.865900 -0.329432
0.394330 -18.825001 -0.328664
0.328194 -18.802299 -0.328245
0.259278 -18.803301 -0.328245
0.193436 -18.784100 -0.327896
0.068561 -10.072200 -0.175816
0.037121 -10.128000 -0.530791
0.033448 -10.086400 -0.176060
0.000000 2.086940 0.405660
0.000362 2.079150 -0.108963
0.000727 2.083200 0.480945
0.000731 2.093680 -0.036545
0.001094 2.090260 0.560084
0.004000 2.083680 0.036371
0.004346 2.075400 -0.479146
0.004713 2.077140 0.108859
0.005094 2.084970 -0.405278
0.005503 2.101960 0.183899
0.005492 2.097840 -0.332267
0.005854 2.096250 0.257388
0.006213 2.094260 -0.257144
0.006584 2.095860 0.331954
0.006970 2.101960 -0.183899
0.006953 2.096740 0.407568
0.007306 2.093120 -0.109696
0.007578 2.067600 0.477346
0.008032 2.091670 -0.036510
0.008437 2.101840 0.563190
0.011296 2.087650 0.036441
0.011986 2.081110 0.109068
0.011985 2.081020 -0.404515
0.012509 2.107910 0.184422
0.012839 2.101760 -0.332893
0.013208 2.102170 0.258119
0.013550 2.098200 -0.257632
0.013848 2.087930 0.330702
0.013928 2.099930 -0.183724
0.014311 2.102600 0.408713
0.014599 2.091080 -0.109592
0.014879 2.079250 0.480046
0.015259 2.081630 -0.036336
0.015644 2.084410 0.558532
0.018582 2.087600 0.036441
0.019306 2.087050 0.109382
0.019286 2.084890 -0.405278
0.019716 2.091920 0.183027
0.020175 2.101700 -0.332893
0.020566 2.104100 0.258363
0.020934 2.104090 -0.258363
0.021216 2.095770 0.331954
0.021116 2.085930 -0.182504
0.021530 2.090760 0.406423
0.021940 2.095010 -0.109801
0.022178 2.083090 0.480945
0.022547 2.083560 -0.036371
0.022729 2.066960 0.553873
0.025820 2.083520 0.036371
0.026591 2.086970 0.109382
0.026613 2.088730 -0.406042
0.027121 2.099800 0.183724
0.027357 2.089770 -0.331015
0.027962 2.107980 0.258851
0.028330 2.107980 -0.258851
0.028532 2.095680 0.331954
0.028452 2.089820 -0.182853
0.028693 2.080850 0.404515
0.029168 2.088930 -0.109487
0.029588 2.092740 0.483195
0.029878 2.087470 -0.036441
0.030334 2.093910 0.561120
0.033061 2.081420 0.036336
0.033908 2.088860 0.109487
0.034000 2.094520 -0.407186
0.034451 2.099700 0.183724
0.034650 2.089660 -0.331015
0.035055 2.091990 0.256901
0.035554 2.099930 -0.257876
0.035913 2.099520 0.332580
0.035813 2.093690 -0.183201
0.036160 2.092520 0.406805
0.036286 2.078830 -0.108963
0.036822 2.088730 0.482295
0.037377 2.099350 -0.036650
0.037331 2.076400 0.556461
0.040519 2.091290 0.036510
0.040925 2.074750 0.108754
0.041312 2.094380 -0.407186
0.041898 2.105540 0.184247
0.042103 2.097430 -0.332267
0.042559 2.101780 0.258119
0.042600 2.085900 -0.256169
0.043079 2.091480 0.331328
0.043245 2.099530 -0.183724
0.043505 2.094340 0.407186
0.043625 2.082680 -0.109173
0.043826 2.074950 0.479146
0.044493 2.089210 -0.036475
0.044703 2.082060 0.558014
0.047774 2.089140 0.036475
0.048211 2.076590 0.108859
0.048302 2.080490 -0.404515
0.049202 2.103390 0.184073
0.049518 2.101220 -0.332893
0.049941 2.103610 0.258363
0.050071 2.093670 -0.257144
0.050142 2.081440 0.329764
0.050526 2.097380 -0.183550
0.050957 2.100060 0.408331
0.050896 2.082520 -0.109173
0.051069 2.074780 0.479146
0.051387 2.073050 -0.036196
0.051874 2.078030 0.556979
0.055013 2.086960 0.036441
0.055727 2.086390 0.109382
0.055774 2.088160 -0.406042
0.056330 2.095240 0.183376
0.056905 2.103010 -0.333205
0.057392 2.107390 0.258851
0.057543 2.099440 -0.257876
0.057680 2.091130 0.331328
0.057407 2.081260 -0.182156
0.058288 2.099870 0.408331
0.058444 2.092310 -0.109696
0.058529 2.082380 0.480945
0.058906 2.082850 -0.036371
0.058908 2.070110 0.554908
0.061939 2.074760 0.036231
0.063069 2.088180 0.109487
0.063122 2.089910 -0.406423
0.063521 2.091040 0.183027
0.063583 2.081080 -0.329764
0.064625 2.103210 0.258363
0.064931 2.101210 -0.258119
0.065102 2.094860 0.331954
0.064920 2.089010 -0.182853
0.065434 2.093770 0.407186
0.065684 2.090100 -0.109592
0.065983 2.088010 0.482295
0.066431 2.090630 -0.036510
0.066627 2.085340 0.559049
0.069315 2.078530 0.036301
0.069794 2.081970 0.109173
0.070417 2.089680 -0.406423
0.071023 2.096780 0.183550
0.070645 2.074920 -0.328825
0.071627 2.093050 0.257144
0.071967 2.102970 -0.258363
0.072048 2.094640 0.331954
0.072349 2.092750 -0.183201
0.072469 2.085680 0.405660
0.072979 2.089860 -0.109592
0.072702 2.081930 0.480945
0.073714 2.100390 -0.036685
0.073746 2.090900 0.560602
0.076501 2.086280 0.036441
0.076403 2.073750 0.108754
0.077273 2.087470 -0.406042
0.078346 2.106490 0.184422
0.077672 2.078620 -0.329451
0.078493 2.090810 0.256901
0.078642 2.094780 -0.257388
0.078845 2.090440 0.331328
0.079590 2.100460 -0.183899
0.079460 2.087390 0.406042
0.079604 2.081620 -0.109173
0.079383 2.075840 0.479596
0.080141 2.086140 -0.036441
0.080158 2.077130 0.556979
0.083418 2.086010 0.036441
0.083802 2.077460 0.108963
0.083958 2.081320 -0.404897
0.085008 2.098260 0.183724
0.085529 2.102040 -0.333205
0.085751 2.098480 0.257876
0.085791 2.090530 -0.256901
0.085816 2.082250 0.330077
0.086391 2.096210 -0.183550
0.086625 2.093000 0.407186
0.086755 2.087330 -0.109487
0.086872 2.081390 0.480945
0.087423 2.085850 -0.036441
0.087814 2.086480 0.559567
0.090699 2.085710 0.036441
0.091578 2.089120 0.109592
0.091308 2.082980 -0.405278
0.092069 2.091980 0.183201
0.091994 2.081990 -0.330077
0.093428 2.106100 0.258851
0.093883 2.108060 -0.259094
0.093261 2.085890 0.330702
0.093174 2.083950 -0.182504
0.094019 2.094650 0.407568
0.094310 2.093000 -0.109801
0.093873 2.075240 0.479596
0.094522 2.081540 -0.036371
0.095096 2.086170 0.559567
0.097604 2.077390 0.036301
0.098398 2.078820 0.109068
0.098301 2.076760 -0.404133
0.099749 2.099600 0.183899
0.099072 2.077710 -0.329451
0.100494 2.099810 0.258119
0.101051 2.103760 -0.258607
0.101111 2.097390 0.332580
0.101196 2.091550 -0.183201
0.100760 2.082540 0.405278
0.101325 2.086670 -0.109487
0.101780 2.088520 0.482745
0.102080 2.087190 -0.036475
0.102473 2.087750 0.560084
0.104754 2.075040 0.036266
0.105756 2.080460 0.109173
0.106712 2.092070 -0.407186
0.107240 2.095240 0.183550
0.107194 2.087200 -0.331015
0.107212 2.087550 0.256657
0.108087 2.097440 -0.257876
0.108432 2.097020 0.332580
0.108704 2.095170 -0.183550
0.108596 2.086080 0.406042
0.108764 2.082300 -0.109277
0.109027 2.080350 0.480945
0.109680 2.092810 -0.036580
0.109760 2.087380 0.560084
0.112467 2.076640 0.036301
0.113163 2.076060 0.108963
0.113800 2.087770 -0.406423
0.115206 2.106790 0.184596
0.114911 2.094700 -0.332267
0.115299 2.095070 0.257632
0.115117 2.085140 -0.256413
0.115898 2.092670 0.331954
0.116235 2.098750 -0.183899
0.115878 2.085690 0.406042
0.116143 2.083900 -0.109382
0.116069 2.076060 0.480046
0.116789 2.082410 -0.036406
0.117627 2.090820 0.561120
0.120175 2.084220 0.036441
0.120525 2.077650 0.109068
0.120861 2.083440 -0.405660
0.122212 2.100410 0.184073
0.122568 2.100200 -0.333205
0.122960 2.100600 0.258363
0.123326 2.100580 -0.258363
0.122506 2.080420 0.330077
0.122976 2.088390 -0.183027
0.123621 2.093110 0.407568
0.123889 2.091460 -0.109801
0.123316 2.075650 0.480046
0.124058 2.081990 -0.036406
0.123887 2.073040 0.556461
0.127206 2.079800 0.036371
0.127535 2.079230 0.109173
0.127890 2.079080 -0.404897
0.128930 2.090030 0.183201
0.128801 2.082020 -0.330390
0.130659 2.106100 0.259094
0.130411 2.096170 -0.257876
0.129896 2.087890 0.331328
0.130017 2.083970 -0.182678
0.130680 2.088750 0.406805
0.131189 2.091010 -0.109801
0.130805 2.079090 0.480945
0.130584 2.075580 -0.036301
0.131125 2.078400 0.558014
0.133973 2.077370 0.036336
0.135439 2.088740 0.109696
0.135657 2.086460 -0.406423
0.136612 2.095530 0.183724
0.135317 2.075670 -0.329451
0.137125 2.097740 0.258119
0.137621 2.099690 -0.258363
0.137960 2.099250 0.333205
0.137290 2.083510 -0.182678
0.136961 2.078510 0.404897
0.137332 2.078610 -0.109173
0.137957 2.082540 0.481845
0.138624 2.087080 -0.036510
0.138637 2.081790 0.559049
0.141223 2.076890 0.036336
0.141957 2.082300 0.109382
0.142575 2.086000 -0.406423
0.143834 2.099040 0.184073
0.143375 2.087000 -0.331328
0.144038 2.091300 0.257388
0.144675 2.095240 -0.257876
0.144648 2.094840 0.332580
0.145024 2.094960 -0.183724
0.144895 2.087810 0.406805
0.144725 2.080110 -0.109277
0.144953 2.078150 0.480945
0.146100 2.094590 -0.036650
0.145944 2.087100 0.560602
0.148678 2.084390 0.036475
0.148654 2.073830 0.108963
0.149574 2.081570 -0.405660
0.151017 2.096540 0.183899
0.150721 2.092430 -0.332267
0.151115 2.092790 0.257632
0.151050 2.086830 -0.256901
0.151674 2.090380 0.331954
0.152625 2.098420 -0.184073
0.152245 2.093190 0.407950
0.151913 2.083600 -0.109487
0.151845 2.077660 0.480945
0.153119 2.090080 -0.036580
0.153370 2.088500 0.561120
0.156252 2.087840 0.036545
0.156341 2.079270 0.109277
0.156544 2.077120 -0.404897
0.158118 2.098010 0.184073
0.158620 2.099770 -0.333518
0.159018 2.100170 0.258607
0.159084 2.096180 -0.258119
0.158671 2.085900 0.331328
0.159797 2.095890 -0.183899
0.160364 2.098490 0.409095
0.159702 2.085020 -0.109592
0.159097 2.077120 0.480945
0.159189 2.073580 -0.036301
0.160659 2.087960 0.561120
0.163591 2.083270 0.036475
0.164274 2.082660 0.109487
0.164620 2.082410 -0.406042
0.164865 2.085500 0.183027
0.165846 2.093270 -0.332580
0.166872 2.101550 0.258851
0.166924 2.097570 -0.258363
0.166314 2.085300 0.331328
0.166526 2.083370 -0.182853
0.167114 2.086150 0.406805
0.167822 2.090400 -0.109906
0.166864 2.078460 0.481395
0.166949 2.074980 -0.036336
0.167690 2.079650 0.559049
0.170406 2.072690 0.036301
0.171707 2.084070 0.109592
0.172049 2.083780 -0.406423
0.172836 2.088860 0.183376
0.173191 2.088710 -0.331954
0.174080 2.094990 0.258119
0.174738 2.102910 -0.259094
0.173592 2.084710 0.331328
0.173963 2.084760 -0.183027
0.174231 2.083590 0.406423
0.174952 2.087810 -0.109801
0.174282 2.079810 0.481845
0.175529 2.090320 -0.036615
0.173815 2.065580 0.555426
0.177960 2.080080 0.036441
0.177595 2.071550 0.108963
0.179967 2.094930 -0.408713
0.180445 2.096210 0.184073
0.179947 2.086150 -0.331641
0.180685 2.090450 0.257632
0.181198 2.096380 -0.258363
0.180845 2.088060 0.331954
0.181737 2.094100 -0.183899
0.181310 2.084960 0.406805
0.180832 2.075280 -0.109173
0.180838 2.075340 0.480945
0.182808 2.093710 -0.036685
0.182515 2.086160 0.561120
0.185388 2.085460 0.036545
0.184824 2.070920 0.108963
0.186215 2.086500 -0.407186
0.187218 2.093620 0.183899
0.187216 2.089480 -0.332267
0.187438 2.087860 0.257388
0.187980 2.089810 -0.257632
0.188133 2.087410 0.331954
0.189045 2.093450 -0.183899
0.188929 2.092170 0.408331
0.188254 2.080630 -0.109487
0.188257 2.076640 0.481395
0.189392 2.085100 -0.036545
0.190146 2.089360 0.562155
0.192667 2.084800 0.036545
0.192236 2.072250 0.109068
0.192771 2.074070 -0.404897
0.195261 2.096880 0.184247
0.195974 2.100580 -0.334144
0.195278 2.093120 0.258119
0.196198 2.099020 -0.258851
0.194682 2.078880 0.330702
0.196351 2.092780 -0.183899
0.196781 2.093420 0.408713
0.196441 2.085900 -0.109801
0.195684 2.073990 0.480945
0.196480 2.082430 -0.036510
0.197075 2.084830 0.561120
0.199541 2.076120 0.036406
0.199829 2.071530 0.109068
0.200951 2.083160 -0.406805
0.201812 2.088260 0.183550
0.202544 2.092020 -0.332893
0.204100 2.104250 0.259582
0.203698 2.096310 -0.258607
0.203065 2.086010 0.331954
0.203635 2.088080 -0.183550
0.203897 2.090760 0.408331
0.203914 2.087180 -0.109906
0.203303 2.077180 0.481845
0.204503 2.085680 -0.036580
0.204337 2.080250 0.560084
0.206589 2.073420 0.036371
0.208848 2.088700 0.110010
0.208391 2.080460 -0.406423
0.209663 2.089490 0.183724
0.209815 2.087330 -0.332267
0.209854 2.087720 0.257632
0.211611 2.101510 -0.259338
0.210345 2.085290 0.331954
0.210721 2.085370 -0.183376
0.209976 2.074380 0.405278
0.210556 2.076490 -0.109382
0.211505 2.082230 0.483195
0.211781 2.084950 -0.036580
0.211989 2.083370 0.561120
0.214078 2.078690 0.036475
0.214384 2.078100 0.109487
0.215531 2.085650 -0.407568
0.217663 2.102690 0.184944
0.216574 2.088630 -0.332580
0.216161 2.081090 0.256901
0.218168 2.096850 -0.258851
