2.171110 -2.999270 -0.854814
13.077300 -18.072201 1.169080
2.641880 -3.652290 -0.876195
13.088100 -18.100500 1.954210
3.097800 -4.285730 -0.837550
13.047500 -18.051001 2.734750
13.032900 -18.044001 3.525410
13.014500 -18.031700 4.322590
2.538190 -3.517990 -0.227347
13.126300 -18.200100 5.180620
13.041000 -18.088499 5.975100
1.879690 -2.614900 -0.862903
13.002800 -18.095301 0.388944
2.168060 -3.018280 -0.857963
13.052600 -18.171301 1.172530
2.629110 -3.661490 -0.876195
13.057400 -18.191401 1.959090
3.183000 -4.436150 -0.864770
12.953500 -18.059900 2.728900
12.941100 -18.049299 3.517590
12.929700 -18.046700 4.315340
2.529380 -3.531700 -0.227661
13.090800 -18.278299 5.190520
12.950800 -18.096201 5.962670
1.862030 -2.608540 -0.858762
12.909100 -18.091200 0.387932
2.158040 -3.025450 -0.857963
12.974800 -18.190100 1.170960
2.616950 -3.670190 -0.876195
12.960000 -18.182699 1.953510
3.178590 -4.461160 -0.867586
12.868200 -18.067200 2.723540
12.850200 -18.048599 3.509140
12.840200 -18.047899 4.305410
2.543120 -3.575880 -0.229964
17.866301 -25.121799 7.117000
12.853800 -18.087099 5.945590
1.853370 -2.614700 -0.858762
6.530860 -9.217040 0.197177
2.151370 -3.037370 -0.859313
12.883600 -18.196100 1.168450
2.604770 -3.678850 -0.876195
12.877800 -18.194700 1.950200
3.151230 -4.453940 -0.864144
12.784200 -18.075800 2.718420
12.759800 -18.054701 3.501630
12.753100 -18.051901 4.296260
2.543920 -3.602240 -0.231116
17.771799 -25.174500 7.114300
12.759400 -18.087601 5.931100
1.846000 -2.624640 -0.859797
12.737300 -18.109900 0.386466
2.130670 -3.030510 -0.855264
12.794700 -18.205000 1.166150
2.591270 -3.688370 -0.876195
12.790400 -18.212400 1.947060
3.131480 -4.460610 -0.863205
12.693600 -18.081301 2.712570
12.676200 -18.070000 3.496000
12.659800 -18.059900 4.287100
2.541020 -3.626260 -0.232058
12.674000 -18.100401 5.920740
1.845670 -2.643740 -0.863938
12.649100 -18.125299 0.385803
2.125120 -3.046290 -0.857513
12.702500 -18.208599 1.163530
2.578380 -3.697390 -0.876195
12.710800 -18.233999 1.944620
3.113630 -4.468270 -0.862580
12.598900 -18.087000 2.706470
12.583700 -18.072001 3.487860
12.572000 -18.068600 4.278700
2.538610 -3.649860 -0.233000
12.594200 -18.120701 5.912980
1.832030 -2.643810 -0.861867
12.565000 -18.132601 0.385070
2.115010 -3.053320 -0.857513
12.616100 -18.219999 1.161440
2.565460 -3.706370 -0.876195
12.618700 -18.237301 1.940260
3.095430 -4.473700 -0.861641
12.516300 -18.096001 2.701600
12.498100 -18.083300 3.481610
12.496400 -18.087500 4.273360
2.570760 -3.722350 -0.237082
12.492500 -18.108900 5.894860
1.822160 -2.648280 -0.861350
12.479000 -18.143400 0.384372
2.103230 -3.059080 -0.857064
12.532100 -18.234301 1.159560
2.553150 -3.714860 -0.876195
12.526600 -18.233101 1.935380
3.071960 -4.473080 -0.859451
12.430500 -18.106800 2.696720
12.412600 -18.094200 3.475350
12.405400 -18.090599 4.263820
12.403000 -18.114201 5.882440
1.811810 -2.653030 -0.860832
12.381700 -18.137300 0.383325
2.098030 -3.074450 -0.859313
12.453700 -18.256500 1.158190
2.540170 -3.723750 -0.876195
12.442600 -18.247101 1.932240
3.045200 -4.467450 -0.856322
12.341500 -18.112400 2.691120
12.327100 -18.104799 3.469090
12.311300 -18.088301 4.253130
2.554820 -3.755070 -0.238024
12.307200 -18.109400 5.866910
1.804710 -2.662540 -0.861867
12.297000 -18.149000 0.382661
2.077450 -3.067230 -0.855264
12.359500 -18.248100 1.155050
2.527150 -3.732590 -0.876195
12.359900 -18.262400 1.929280
3.024060 -4.469870 -0.854758
12.251600 -18.115900 2.685270
12.244900 -18.112801 3.462830
12.223900 -18.095400 4.244740
12.207900 -18.085400 5.037550
12.184400 -18.057301 5.836890
1.799720 -2.675230 -0.863938
12.216700 -18.159800 0.382033
2.069450 -3.077340 -0.856164
12.225600 -18.186701 1.148460
2.514110 -3.741390 -0.876195
12.217200 -18.188000 1.916900
3.007010 -4.476600 -0.854132
12.164900 -18.116899 2.679420
12.151900 -18.111200 3.454390
12.145200 -18.108101 4.238250
12.129400 -18.098200 5.029910
12.097600 -18.064400 5.825500
1.795130 -2.687610 -0.866009
12.129900 -18.167400 0.381300
2.063020 -3.091030 -0.857963
12.095300 -18.122499 1.141870
2.501690 -3.749710 -0.876195
12.110400 -18.158800 1.909580
2.988080 -4.482140 -0.853194
12.081700 -18.129499 2.675030
12.064400 -18.110300 3.446560
12.063400 -18.122601 4.231760
12.038100 -18.098301 5.018210
12.014100 -18.069000 5.814110
1.775060 -2.677760 -0.860832
12.043100 -18.167500 0.380462
2.050600 -3.094600 -0.857064
12.016600 -18.141300 1.140400
2.488580 -3.758420 -0.876195
12.015000 -18.152700 1.904530
2.960120 -4.472250 -0.849439
12.001800 -18.139700 2.670640
11.978200 -18.117701 3.439990
11.978400 -18.124800 4.222990
11.953400 -18.100700 5.007860
10.536400 -15.961000 -0.333830
11.931800 -18.081800 5.804790
1.774200 -2.696850 -0.864973
11.952200 -18.174801 0.379695
2.037110 -3.098840 -0.856164
11.934600 -18.161800 1.138940
2.475450 -3.767080 -0.876195
11.931900 -18.164600 1.901390
2.941540 -4.479770 -0.848813
11.913500 -18.150299 2.665770
2.966410 -4.521090 -0.663944
11.892200 -18.131701 3.434360
11.876400 -18.114401 4.210390
11.869800 -18.118299 5.000660
10.482200 -16.006201 -0.333969
11.837900 -18.083401 5.791340
1.770640 -2.713040 -0.868079
11.866900 -18.182899 0.378996
2.028410 -3.109200 -0.857064
11.851500 -18.173300 1.137050
2.461630 -3.776130 -0.876195
11.844600 -18.176500 1.898080
2.922940 -4.487210 -0.848188
11.825100 -18.153601 2.660160
2.950620 -4.531420 -0.663944
11.806200 -18.138300 3.427790
11.793800 -18.133200 4.204670
11.776800 -18.120800 4.989410
10.513400 -16.176901 -0.336762
11.751600 -18.089001 5.779950
1.759050 -2.715960 -0.867044
11.778400 -18.192699 0.378298
2.012760 -3.110070 -0.855264
11.756600 -18.173000 1.134330
2.448430 -3.784700 -0.876195
11.768100 -18.197599 1.895990
2.905120 -4.494070 -0.847562
11.737000 -18.163401 2.655290
2.921060 -4.522190 -0.661019
11.722500 -18.154900 3.422790
11.710200 -18.142900 4.197420
11.721900 -18.174900 4.993010
10.454000 -16.215300 -0.336762
11.739600 -18.216299 5.806860
1.744340 -2.713960 -0.864456
11.697500 -18.206800 0.377740
2.001890 -3.117070 -0.855264
11.673700 -18.183701 1.132450
2.435200 -3.793220 -0.876195
11.693700 -18.221800 1.894240
2.881950 -4.492540 -0.845372
11.651000 -18.169201 2.650170
2.907400 -4.535700 -0.661507
11.630300 -18.150801 3.414340
11.625600 -18.150600 4.189780
5.961970 -9.311730 -0.579464
11.675200 -18.242001 5.000210
10.425400 -16.295500 -0.337669
11.665600 -18.240900 5.801690
1.737970 -2.724920 -0.866009
11.606000 -18.203699 0.376832
1.993100 -3.127330 -0.856164
11.669200 -18.309799 1.137890
2.421950 -3.801700 -0.876195
11.675000 -18.333099 1.901560
2.859880 -4.492580 -0.843495
11.572600 -18.186300 2.646760
2.890490 -4.544150 -0.661263
11.556200 -18.167601 3.410270
3.544950 -5.575180 -0.578017
11.546400 -18.166201 4.184060
5.962630 -9.384740 -0.582709
11.591600 -18.251400 4.991660
9.700180 -15.273200 -0.315819
11.571900 -18.227301 5.785120
1.724320 -2.724440 -0.863938
9.617360 -15.195500 0.313899
1.982710 -3.133920 -0.856164
11.627600 -18.385900 1.140090
2.408660 -3.810130 -0.876195
11.599200 -18.355200 1.899650
2.835470 -4.487010 -0.840679
11.488900 -18.187700 2.641400
2.864800 -4.536930 -0.658826
11.469600 -18.171101 3.403390
3.521210 -5.580780 -0.577320
11.457800 -18.159599 4.173760
5.957050 -9.445010 -0.585221
11.514400 -18.263399 4.984470
9.586030 -15.210600 -0.313829
11.487600 -18.234900 5.774770
1.716300 -2.731780 -0.864456
9.547240 -15.201900 0.313341
1.972800 -3.142470 -0.856614
11.496500 -18.319799 1.133490
2.396020 -3.818100 -0.876195
11.497000 -18.327801 1.892850
2.817690 -4.493530 -0.840053
11.399000 -18.185600 2.635300
2.845790 -4.541850 -0.658094
11.387200 -18.180901 3.397760
3.500570 -5.589050 -0.576971
11.373500 -18.166201 4.166120
5.907090 -9.438660 -0.583546
11.435100 -18.278700 4.977720
9.519100 -15.221900 -0.313375
11.409500 -18.252001 5.767520
1.706760 -2.737760 -0.864456
9.481420 -15.214800 0.312922
1.954610 -3.137760 -0.853464
11.415500 -18.332701 1.131820
2.382670 -3.826440 -0.876195
11.424500 -18.354300 1.891450
2.800950 -4.501660 -0.839740
11.315500 -18.193300 2.630670
2.828870 -4.550070 -0.657851
11.307000 -18.193701 3.392750
3.478940 -5.597850 -0.576622
11.295600 -18.182400 4.160780
5.851980 -9.423590 -0.581348
11.345500 -18.277100 4.966470
9.438490 -15.210900 -0.312468
11.333500 -18.271999 5.761310
1.693120 -2.737120 -0.862385
9.411430 -15.220600 0.312363
1.954910 -3.162800 -0.858413
11.333700 -18.336500 1.129720
2.369300 -3.834730 -0.876195
11.337400 -18.356701 1.887620
2.791440 -4.521500 -0.841618
11.237300 -18.209000 2.627260
2.807750 -4.551470 -0.656632
11.219600 -18.187401 3.384620
3.451010 -5.596400 -0.575228
11.214500 -18.193300 4.154290
5.821150 -9.447360 -0.581557
11.259200 -18.280100 4.956570
9.374360 -15.219900 -0.312014
11.254600 -18.279900 5.751990
1.678510 -2.734790 -0.859797
9.341030 -15.219300 0.311700
1.941350 -3.164280 -0.857064
11.263300 -18.365700 1.129100
2.355900 -3.842980 -0.876195
11.260700 -18.375799 1.885530
2.769210 -4.518940 -0.839427
11.156100 -18.212299 2.622380
2.767770 -4.520130 -0.650782
11.135400 -18.192699 3.378360
3.427290 -5.601610 -0.574531
11.133600 -18.196899 4.146660
5.805420 -9.492170 -0.583127
11.178200 -18.284000 4.947570
9.302410 -15.221900 -0.311386
11.166600 -18.279499 5.739570
1.673450 -2.746940 -0.861867
9.262890 -15.210800 0.310862
1.929280 -3.169380 -0.856614
11.188800 -18.387899 1.128050
2.343150 -3.850770 -0.876195
13.755000 -22.614201 2.315730
2.735970 -4.499880 -0.834109
11.072900 -18.218901 2.617750
2.758160 -4.539940 -0.652245
11.055500 -18.204500 3.373350
3.404560 -5.606130 -0.573833
11.043500 -18.191999 4.136740
5.732880 -9.447490 -0.579150
11.099100 -18.298000 4.940820
9.239890 -15.238900 -0.311072
11.076700 -18.275400 5.726110
1.656850 -2.741190 -0.858244
9.201460 -15.229400 0.310583
1.925260 -3.187770 -0.859763
11.095600 -18.378901 1.125120
2.329690 -3.858920 -0.876195
13.779000 -22.832600 2.333160
2.712080 -4.495870 -0.831606
10.989800 -18.225100 2.613120
2.748440 -4.559740 -0.653707
10.976600 -18.217600 3.368660
3.380860 -5.611160 -0.573136
10.956700 -18.191799 4.127960
5.737980 -9.530750 -0.583023
11.007000 -18.289801 4.928230
9.173240 -15.248700 -0.310618
10.990900 -18.277500 5.714730
1.656220 -2.761870 -0.862903
9.131800 -15.234000 0.310025
1.910120 -3.187780 -0.857963
11.006800 -18.376400 1.122610
2.279890 -3.806400 -0.862457
13.797400 -23.044701 2.349890
2.703480 -4.517180 -0.833796
10.909800 -18.236099 2.609220
2.735560 -4.574420 -0.654438
10.888600 -18.215099 3.361150
3.360230 -5.621210 -0.572962
10.884000 -18.214800 4.124530
5.763060 -9.648460 -0.588989
10.919100 -18.288000 4.917430
9.100480 -15.248000 -0.309955
10.883500 -18.242800 5.691950
1.645580 -2.765970 -0.862385
9.068340 -15.248600 0.309676
1.889020 -3.177680 -0.853464
10.916000 -18.370100 1.119880
2.302690 -3.875090 -0.876195
13.806400 -23.243500 2.365230
2.676600 -4.507900 -0.830354
10.826800 -18.241699 2.604590
2.714520 -4.575400 -0.653220
10.806800 -18.222401 3.355520
3.345670 -5.641480 -0.573833
10.800400 -18.218901 4.116890
5.708980 -9.634160 -0.586895
10.769800 -18.181801 4.878740
9.029880 -15.250500 -0.309361
10.754800 -18.170900 5.657780
1.631990 -2.765040 -0.860315
9.000830 -15.256000 0.309187
1.884840 -3.196000 -0.856614
10.760700 -18.246201 1.110150
2.289150 -3.883110 -0.876195
10.764500 -18.267300 1.855020
2.662850 -4.520620 -0.830980
10.748000 -18.253700 2.600940
2.711620 -4.607090 -0.656388
10.725200 -18.222401 3.348950
3.325960 -5.653120 -0.573833
10.715800 -18.220900 4.108880
5.776530 -9.826200 -0.597363
10.703300 -18.214199 4.877390
8.966090 -15.257900 -0.308908
10.676900 -18.176500 5.648470
1.620370 -2.767390 -0.859279
8.926960 -15.246100 0.308384
1.878170 -3.208960 -0.858413
10.685900 -18.264700 1.109000
2.275580 -3.891080 -0.876195
10.684600 -18.277201 1.852230
2.635880 -4.508970 -0.827226
10.670300 -18.260099 2.596790
2.681310 -4.590350 -0.652732
10.646600 -18.234100 3.344260
3.302190 -5.657810 -0.573136
10.632600 -18.217300 4.100100
5.733850 -9.828050 -0.596316
10.619300 -18.209200 4.866590
8.896660 -15.261500 -0.308349
10.597800 -18.187000 5.640180
1.615070 -2.779430 -0.861350
8.859620 -15.253000 0.307895
1.863050 -3.208760 -0.856614
10.598000 -18.260401 1.106490
2.237050 -3.854450 -0.866273
10.600900 -18.272900 1.848220
2.604270 -4.490800 -0.822220
10.580700 -18.252600 2.590450
2.671240 -4.609980 -0.654195
10.572000 -18.252399 3.340810
3.276420 -5.656660 -0.571916
10.551200 -18.223801 4.093240
5.766540 -9.963830 -0.603329
10.540100 -18.219200 4.859390
8.830320 -15.269900 -0.307895
10.518800 -18.197100 5.631900
1.598600 -2.773330 -0.857726
8.799340 -15.271700 0.307651
1.851830 -3.215240 -0.856614
10.512200 -18.259199 1.104180
2.229450 -3.872450 -0.868563
10.522200 -18.283899 1.845610
2.596460 -4.513560 -0.824723
10.500100 -18.260201 2.586310
2.647220 -4.605510 -0.652245
10.490500 -18.258400 3.335180
3.243750 -5.645610 -0.569650
10.473800 -18.236700 4.087890
5.695920 -9.921540 -0.599561
10.458000 -18.223801 4.850840
8.759050 -15.269400 -0.307267
10.437900 -18.203501 5.622590
1.587950 -2.777220 -0.857209
8.731090 -15.276200 0.307127
1.841570 -3.223380 -0.857064
10.431600 -18.266300 1.102400
2.235400 -3.914300 -0.876195
10.440500 -18.289400 1.842470
2.578730 -4.519160 -0.824097
10.423500 -18.274300 2.583140
2.632110 -4.616450 -0.652489
10.403300 -18.253700 3.327670
3.211200 -5.634400 -0.567384
10.398500 -18.252600 4.083310
5.676080 -9.967390 -0.601131
10.373100 -18.222900 4.840950
8.694820 -15.280800 -0.306883
10.355200 -18.206301 5.612230
1.576340 -2.779380 -0.856173
8.656020 -15.268300 0.306360
1.838950 -3.245050 -0.861113
10.354000 -18.278299 1.100940
2.221720 -3.922080 -0.876195
10.357000 -18.291000 1.838990
2.548350 -4.502350 -0.819404
10.346900 -18.288099 2.579970
2.619890 -4.632520 -0.653463
10.326900 -18.267500 3.323610
3.185630 -5.635160 -0.566338
10.319200 -18.261499 4.077210
5.625540 -9.959320 -0.599456
10.291200 -18.226801 4.832400
8.629640 -15.290200 -0.306464
10.293500 -18.245701 5.613270
1.566630 -2.784870 -0.856173
8.589920 -15.275800 0.305906
1.820930 -3.239550 -0.857963
10.283300 -18.302099 1.100210
2.208010 -3.929810 -0.876195
10.271600 -18.288799 1.835150
2.537450 -4.519830 -0.820968
10.261600 -18.285999 2.574610
2.609530 -4.652020 -0.654926
10.245600 -18.272400 3.317980
3.186400 -5.682740 -0.569999
10.229500 -18.251101 4.066900
5.713740 -10.198400 -0.612645
10.251300 -18.305099 4.843650
8.561560 -15.294000 -0.305941
10.284500 -18.379299 5.643290
1.557840 -2.792010 -0.856691
8.523890 -15.283000 0.305452
1.809610 -3.245890 -0.857963
10.232000 -18.360600 1.101570
2.194280 -3.937490 -0.876195
10.242600 -18.387199 1.841430
2.517810 -4.521760 -0.819717
10.178400 -18.287001 2.569740
2.577830 -4.633350 -0.651026
10.170300 -18.287399 3.314220
3.237230 -5.820940 -0.582723
10.155200 -18.267900 4.062710
5.616020 -10.106600 -0.605946
10.128700 -18.235100 4.815750
8.498410 -15.306300 -0.305592
10.203400 -18.384701 5.633970
1.550890 -2.802500 -0.858244
8.459840 -15.293400 0.305068
1.797320 -3.250480 -0.857513
10.178400 -18.415400 1.102720
2.180530 -3.945130 -0.876195
10.208200 -18.476900 1.846830
2.499150 -4.525330 -0.818778
10.103000 -18.301600 2.566810
2.561640 -4.642320 -0.651026
10.089200 -18.291599 3.308590
3.237100 -5.868840 -0.586384
10.076200 -18.275700 4.056600
5.641440 -10.236300 -0.612540
10.048100 -18.239700 4.807650
8.424670 -15.299100 -0.304859
10.108400 -18.364300 5.616890
1.535530 -2.797730 -0.855138
8.395820 -15.303600 0.304684
1.790650 -3.265280 -0.859763
10.095900 -18.417601 1.100730
2.166740 -3.952720 -0.876195
10.131200 -18.489700 1.844560
2.483340 -4.534030 -0.818778
10.021900 -18.305401 2.562430
2.551140 -4.661680 -0.652489
10.008200 -18.295500 3.302960
3.209900 -5.867870 -0.585164
10.000100 -18.288401 4.051640
5.625790 -10.292800 -0.614738
9.965660 -18.240400 4.798660
8.354930 -15.298600 -0.304265
10.031300 -18.375700 5.609640
1.520210 -2.792900 -0.852032
8.325150 -15.301200 0.304056
1.779240 -3.271510 -0.859763
10.026700 -18.443899 1.100210
2.152930 -3.960260 -0.876195
10.029500 -18.456699 1.837770
2.459950 -4.528780 -0.816275
9.944700 -18.315901 2.559010
2.531060 -4.663580 -0.651514
9.927340 -18.299101 3.297330
3.178950 -5.859780 -0.583246
9.920330 -18.293800 4.045150
5.631710 -10.389600 -0.619344
9.890790 -18.254499 4.793260
8.291950 -15.310100 -0.303916
9.937630 -18.356300 5.593080
1.510450 -2.798190 -0.852032
8.257450 -15.303700 0.303532
1.762260 -3.267410 -0.857064
9.957560 -18.469999 1.099680
2.139090 -3.967750 -0.876195
9.955590 -18.474100 1.836020
2.434760 -4.519950 -0.813146
9.863760 -18.319000 2.554630
2.524180 -4.689870 -0.653951
9.846560 -18.302299 3.291690
3.155640 -5.865570 -0.582723
9.831310 -18.281700 4.034850
5.638910 -10.490100 -0.624159
9.820550 -18.276899 4.790110
8.231830 -15.326600 -0.303672
9.853390 -18.353399 5.581690
1.500670 -2.803440 -0.852032
8.221900 -15.366000 0.304195
1.747170 -3.266670 -0.855264
9.889260 -18.497601 1.099260
2.125230 -3.975190 -0.876195
9.879770 -18.487600 1.833930
2.419900 -4.530160 -0.813459
9.784800 -18.325300 2.550730
2.496570 -4.677630 -0.651026
9.775170 -18.322701 3.289190
3.135150 -5.876550 -0.582723
9.757270 -18.296801 4.030650
5.564670 -10.439200 -0.619972
9.742030 -18.283600 4.782910
8.245030 -15.480600 -0.306150
9.765660 -18.343399 5.568230
1.496310 -2.818900 -0.855138
8.243190 -15.535900 0.306988
1.731190 -3.264140 -0.853014
9.819020 -18.521400 1.098640
2.111340 -3.982580 -0.876195
9.820780 -18.532600 1.834980
2.397600 -4.526360 -0.811269
9.705910 -18.331301 2.546830
2.476520 -4.679300 -0.650051
9.696380 -18.328699 3.284190
3.115550 -5.889220 -0.582898
9.682330 -18.309900 4.026070
5.553400 -10.506300 -0.622798
9.663580 -18.289900 4.775710
8.246970 -15.615300 -0.308244
9.684440 -18.344900 5.558400
1.481070 -2.813850 -0.852032
8.268990 -15.716800 0.309990
1.716160 -3.263260 -0.851215
9.748250 -18.536200 1.097590
2.097430 -3.989930 -0.876195
14.050600 -26.739799 2.642740
2.387290 -4.545200 -0.813146
9.625250 -18.333401 2.542440
2.461090 -4.689670 -0.650295
9.616270 -18.324100 3.277620
3.086640 -5.884180 -0.581329
9.603770 -18.315800 4.019960
5.546360 -10.582200 -0.626147
9.587920 -18.301100 4.769860
8.256390 -15.759500 -0.310548
9.606520 -18.344400 5.548560
1.465870 -2.808730 -0.848927
8.266780 -15.839800 0.311875
1.706230 -3.270660 -0.851665
9.681640 -18.566601 1.097380
2.059890 -3.951960 -0.866273
13.974700 -26.822300 2.646050
2.365820 -4.540830 -0.810956
9.555230 -18.347601 2.540000
2.444610 -4.696050 -0.650051
9.537650 -18.329500 3.272610
3.058730 -5.880780 -0.579934
9.527580 -18.317900 4.013480
5.576650 -10.726400 -0.633579
9.516400 -18.312000 4.764460
8.271390 -15.923100 -0.313201
9.534420 -18.362400 5.543900
1.456550 -2.813570 -0.848927
8.282210 -16.005301 0.314562
1.690330 -3.267950 -0.849415
9.613100 -18.593201 1.096960
2.070220 -4.004110 -0.876195
9.558070 -18.494699 1.821380
2.338170 -4.526240 -0.806889
9.476560 -18.352600 2.536100
2.419100 -4.686910 -0.647614
9.463650 -18.343300 3.269170
3.039210 -5.890890 -0.579934
9.450990 -18.326599 4.008130
5.587680 -10.839800 -0.639127
9.436350 -18.313999 4.756370
8.290830 -16.097601 -0.316063
9.457000 -18.369801 5.536140
1.449370 -2.823800 -0.850479
8.291100 -16.160500 0.317040
1.678910 -3.273830 -0.849415
9.522630 -18.576900 1.094030
2.032950 -3.965890 -0.866273
13.751800 -26.838800 2.638380
2.323260 -4.536130 -0.807202
9.394350 -18.350300 2.531230
2.409050 -4.707700 -0.649320
9.390570 -18.358700 3.266040
3.018630 -5.901460 -0.579934
9.378910 -18.343800 4.004700
5.650690 -11.056700 -0.650745
9.351980 -18.306900 4.746020
8.300070 -16.254700 -0.318576
9.336610 -18.292500 5.503010
1.442130 -2.834000 -0.852032
8.301730 -16.321199 0.319623
1.662170 -3.269240 -0.846716
9.428390 -18.544201 1.090260
2.042220 -4.018470 -0.876195
9.357440 -18.420601 1.807610
2.302940 -4.535410 -0.805638
9.321250 -18.365200 2.528790
2.378230 -4.687760 -0.645420
9.312660 -18.356199 3.260090
2.995310 -5.906630 -0.579411
9.298850 -18.344900 3.997830
5.588600 -11.030000 -0.648024
9.285380 -18.334200 4.744670
8.314790 -16.417700 -0.321229
9.267170 -18.306200 5.497830
1.428750 -2.832120 -0.849962
8.323210 -16.498600 0.322555
1.656590 -3.285180 -0.849415
9.259320 -18.370199 1.078120
2.028180 -4.025570 -0.876195
9.259920 -18.387300 1.801160
2.297660 -4.562430 -0.809079
9.253160 -18.381901 2.526840
2.367140 -4.704480 -0.646639
9.229000 -18.349800 3.253210
2.971990 -5.911710 -0.578888
9.230030 -18.359800 3.994400
5.543020 -11.030700 -0.646977
9.207030 -18.330000 4.735670
8.327410 -16.586100 -0.323952
9.191090 -18.314199 5.490590
1.422800 -2.843750 -0.852032
8.321030 -16.638500 0.324719
1.650340 -3.301400 -0.852115
9.181750 -18.375601 1.076550
2.014820 -4.032280 -0.876195
9.189990 -18.400101 1.799420
2.265830 -4.538610 -0.803447
9.172980 -18.382099 2.522450
2.348930 -4.709160 -0.646151
9.155190 -18.362499 3.249770
2.948810 -5.914400 -0.578191
9.149240 -18.358601 3.987150
5.548120 -11.137500 -0.652106
9.130830 -18.337700 4.729370
9.157800 -18.399900 -0.358752
9.105590 -18.302999 5.477650
1.412870 -2.848700 -0.852032
9.126230 -18.408899 0.358647
1.635340 -3.300160 -0.850315
9.111350 -18.395000 1.075820
2.000730 -4.039290 -0.876195
9.104490 -18.389200 1.795230
2.249100 -4.544720 -0.803135
9.095560 -18.387300 2.518800
2.343910 -4.740470 -0.649320
9.080540 -18.373100 3.246020
2.920200 -5.908580 -0.576622
9.065970 -18.351700 3.978750
5.523360 -11.185500 -0.653781
9.056420 -18.348400 4.723970
9.092640 -18.429899 -0.358717
9.029680 -18.310400 5.470400
1.397800 -2.843220 -0.848927
9.049560 -18.415501 0.358158
1.622090 -3.302350 -0.849415
9.031230 -18.394400 1.073930
1.964120 -4.000430 -0.866273
9.033230 -18.406601 1.793840
2.224520 -4.534810 -0.800006
9.013840 -18.383301 2.513920
2.311630 -4.716540 -0.644933
9.009400 -18.390499 3.243510
2.902190 -5.924110 -0.577145
8.991500 -18.362000 3.974170
5.536080 -11.310500 -0.659956
8.971760 -18.337900 4.713170
9.015950 -18.436399 -0.358228
8.957230 -18.324400 5.465220
1.392950 -2.858500 -0.852032
8.978220 -18.432600 0.357879
1.609700 -3.306240 -0.848965
8.948620 -18.388100 1.071740
1.941550 -3.989600 -0.862457
8.961080 -18.421900 1.792270
2.208680 -4.542550 -0.800006
8.937470 -18.389601 2.510510
2.296890 -4.728150 -0.645420
8.926160 -18.382700 3.236630
2.881490 -5.934200 -0.577145
8.918780 -18.375700 3.970350
5.487850 -11.311800 -0.658910
8.891540 -18.335800 4.704630
8.930600 -18.424601 -0.357390
8.884780 -18.338200 5.460050
1.379600 -2.856380 -0.849962
8.903390 -18.442200 0.357460
1.592220 -3.299550 -0.845816
8.875700 -18.401199 1.070690
1.958320 -4.060020 -0.876195
8.885470 -18.429701 1.790000
2.191100 -4.546670 -0.799380
8.865470 -18.404600 2.508320
2.280370 -4.736140 -0.645420
8.852520 -18.394199 3.233190
2.852120 -5.926270 -0.575402
8.847770 -18.392500 3.967300
5.450930 -11.336300 -0.659224
8.820730 -18.352699 4.701030
8.854110 -18.430401 -0.356902
8.858350 -18.447500 5.483340
1.364620 -2.850730 -0.846856
8.821700 -18.437099 0.356762
1.587420 -3.319150 -0.849415
8.799350 -18.406900 1.069220
1.944140 -4.066830 -0.876195
8.810770 -18.438999 1.787910
2.170100 -4.543590 -0.797503
8.790910 -18.414000 2.505390
2.261260 -4.738690 -0.644689
8.777200 -18.401800 3.229120
2.821980 -5.916410 -0.573485
8.769150 -18.393200 3.960810
5.413040 -11.358900 -0.659433
8.748230 -18.365801 4.696530
8.779410 -18.439501 -0.356483
8.810510 -18.513201 5.493690
1.354660 -2.855470 -0.846856
8.744440 -18.440701 0.356239
1.566650 -3.305300 -0.844466
8.802600 -18.580099 1.077490
1.929930 -4.073590 -0.876195
8.811160 -18.606501 1.801160
2.150010 -4.542210 -0.795939
8.712990 -18.415800 2.501490
2.238760 -4.733990 -0.642983
8.698560 -18.402000 3.223800
2.801310 -5.926230 -0.573485
8.695670 -18.404100 3.956620
5.385300 -11.403000 -0.660899
8.673250 -18.373301 4.690680
8.701340 -18.441099 -0.355924
8.711220 -18.470400 5.471950
1.346330 -2.863680 -0.847891
8.667260 -18.443899 0.355715
1.549300 -3.298400 -0.841317
8.736000 -18.607100 1.077280
1.915700 -4.080300 -0.876195
8.751240 -18.648001 1.802210
2.127430 -4.535380 -0.793436
8.635170 -18.417400 2.497590
2.228120 -4.754360 -0.644689
8.625060 -18.412500 3.220360
2.783990 -5.943190 -0.574182
8.613890 -18.396999 3.948600
5.317520 -11.362000 -0.657444
8.597510 -18.378700 4.684380
8.635220 -18.467800 -0.355855
8.630330 -18.465700 5.461600
1.342850 -2.882370 -0.852032
8.596070 -18.459600 0.355436
1.543530 -3.316160 -0.844466
8.642220 -18.567101 1.073310
1.871630 -4.022880 -0.862457
2.118240 -4.557110 -0.795939
8.559120 -18.422199 2.494180
2.194770 -4.723920 -0.639570
8.552310 -18.415899 3.215980
2.757360 -5.940220 -0.572962
8.545490 -18.418100 3.946690
5.316490 -11.463900 -0.662259
8.522580 -18.377100 4.676730
8.560470 -18.467300 -0.355296
8.568240 -18.492500 5.461080
1.330850 -2.881550 -0.850479
8.523910 -18.464399 0.354982
1.534160 -3.324800 -0.845366
8.560520 -18.552200 1.070790
1.866500 -4.046890 -0.866273
9.017820 -19.561199 1.884480
2.102290 -4.562320 -0.795626
8.488850 -18.430700 2.491500
2.189060 -4.752810 -0.642495
8.478800 -18.417299 3.211290
2.728480 -5.929420 -0.571044
8.472880 -18.421400 3.941350
5.301800 -11.532200 -0.665190
8.454260 -18.389299 4.672680
8.490000 -18.475599 -0.354912
8.500420 -18.506800 5.456940
1.310030 -2.861350 -0.843232
8.453480 -18.472500 0.354598
1.520690 -3.324550 -0.844016
8.474110 -18.534700 1.068070
1.874290 -4.099480 -0.876195
9.024120 -19.746799 1.899470
2.073200 -4.538720 -0.790307
8.419440 -18.440599 2.489060
2.164220 -4.742360 -0.640058
8.405440 -18.427000 3.207850
2.703020 -5.925740 -0.569824
8.397900 -18.419001 3.934860
5.285060 -11.597000 -0.667912
8.380320 -18.397400 4.667280
8.412200 -18.476000 -0.354354
8.422160 -18.506399 5.448140
1.310410 -2.888780 -0.849962
8.374090 -18.469101 0.353970
1.515520 -3.344040 -0.847616
8.378050 -18.495001 1.064090
1.830810 -4.041620 -0.862457
9.052110 -19.992300 1.920040
2.053270 -4.536930 -0.788743
8.341930 -18.441000 2.485160
2.149290 -4.753500 -0.640545
8.332120 -18.436399 3.204400
2.678210 -5.926070 -0.568953
8.321430 -18.421400 3.929140
5.219070 -11.559000 -0.664667
8.307240 -18.407101 4.662340
8.336150 -18.479700 -0.353865
8.351160 -18.521601 5.444000
1.298730 -2.889810 -0.848927
8.302190 -18.481800 0.353656
1.494250 -3.327970 -0.842217
8.295440 -18.484100 1.061790
1.816690 -4.047990 -0.862457
9.070330 -20.220100 1.938870
2.033380 -4.535060 -0.787178
8.264510 -18.441000 2.481260
2.129440 -4.753730 -0.639570
8.256410 -18.440201 3.200020
2.650180 -5.919010 -0.567384
8.248250 -18.430599 3.924940
5.205600 -11.637300 -0.668121
8.227820 -18.402100 4.653790
8.256900 -18.475800 -0.353237
8.280150 -18.536501 5.439860
1.287070 -2.890800 -0.847891
8.227870 -18.488800 0.353237
1.482630 -3.333170 -0.842217
8.210590 -18.467300 1.059180
1.802550 -4.054300 -0.862457
9.088700 -20.452000 1.958040
2.015930 -4.538520 -0.786553
8.192850 -18.453400 2.479070
2.103170 -4.739360 -0.636646
8.181580 -18.445400 3.195960
2.630310 -5.930050 -0.567558
8.178300 -18.446699 3.922270
5.221590 -11.783200 -0.675448
8.154060 -18.409401 4.648390
8.177790 -18.471600 -0.352608
8.188820 -18.505301 5.422260
1.276970 -2.895270 -0.847891
8.152800 -18.493601 0.352783
1.472560 -3.341890 -0.843117
8.129980 -18.459299 1.057080
1.777310 -4.035420 -0.857114
9.100740 -20.673201 1.976170
2.000080 -4.545530 -0.786553
8.121990 -18.467400 2.477120
2.095400 -4.766660 -0.639327
8.105220 -18.446699 3.191260
2.602380 -5.922780 -0.565989
8.108330 -18.462500 3.919600
5.199700 -11.845200 -0.677960
8.081920 -18.419901 4.643890
8.102010 -18.474400 -0.352120
8.113310 -18.509001 5.415010
1.266850 -2.899710 -0.847891
8.076190 -18.494499 0.352259
1.456200 -3.336290 -0.840417
8.055900 -18.465599 1.055830
1.771060 -4.059590 -0.860930
9.119310 -20.913000 1.996040
1.983410 -4.550670 -0.786240
8.047960 -18.473801 2.474190
2.079540 -4.775770 -0.639570
8.029750 -18.449499 3.186880
2.580100 -5.928170 -0.565641
8.032090 -18.463699 3.913870
5.193360 -11.943900 -0.682566
8.008250 -18.426500 4.638490
8.035090 -18.497101 -0.352015
8.032500 -18.500000 5.404140
1.256720 -2.904120 -0.847891
8.001260 -18.498699 0.351806
1.450740 -3.355670 -0.844016
7.980310 -18.467899 1.054360
1.749090 -4.047730 -0.857114
9.145790 -21.175200 2.018000
1.960470 -4.541240 -0.783424
7.971630 -18.474400 2.470540
2.057350 -4.770240 -0.637864
7.958260 -18.461100 3.184070
2.561760 -5.942630 -0.566164
7.949720 -18.450199 3.905100
5.124780 -11.899600 -0.679007
7.940800 -18.447201 4.636690
7.964150 -18.510300 -0.351736
7.919030 -18.414301 5.371010
1.247340 -2.910260 -0.848409
7.927980 -18.506300 0.351422
1.432110 -3.344590 -0.839967
7.904010 -18.468100 1.052790
1.753490 -4.097130 -0.866273
7.954400 -18.594801 1.769440
1.951590 -4.564400 -0.786240
7.893830 -18.471100 2.466390
2.024310 -4.739060 -0.632746
7.886010 -18.470600 3.180940
2.537870 -5.944210 -0.565466
7.876030 -18.456200 3.900520
5.088690 -11.930300 -0.679739
7.860320 -18.437201 4.627240
7.894780 -18.527000 -0.351526
7.844100 -18.417000 5.363770
1.239440 -2.919930 -0.849962
7.861770 -18.530199 0.351352
1.417380 -3.342390 -0.838168
7.838040 -18.483200 1.052160
1.731520 -4.085150 -0.862457
7.841250 -18.508699 1.758630
1.934880 -4.569370 -0.785927
7.822340 -18.482100 2.464200
1.998480 -4.724150 -0.629821
7.813170 -18.469400 3.176250
2.517880 -5.954860 -0.565641
7.806970 -18.472700 3.898230
5.068780 -11.999500 -0.682670
7.785300 -18.439400 4.620940
7.823190 -18.529100 -0.351073
7.779980 -18.435699 5.361700
1.229240 -2.924240 -0.849962
7.792530 -18.537701 0.351003
1.408560 -3.352460 -0.839517
7.766510 -18.493900 1.051220
1.688370 -4.022380 -0.847955
7.768120 -18.515800 1.756710
1.922010 -4.581230 -0.786865
7.751800 -18.485901 2.461270
1.980500 -4.725260 -0.629090
7.742550 -18.482000 3.173740
2.490930 -5.948920 -0.564246
7.737330 -18.478500 3.894030
5.049780 -12.066000 -0.685496
7.716590 -18.447100 4.616450
7.747670 -18.530500 -0.350584
7.701430 -18.428900 5.351860
1.215080 -2.917600 -0.846856
7.714710 -18.533400 0.350409
1.400590 -3.366350 -0.841767
7.698080 -18.511700 1.050700
1.730810 -4.162100 -0.876195
7.699030 -18.523100 1.754970
1.895390 -4.562370 -0.782485
7.682660 -18.501900 2.459810
1.964750 -4.733980 -0.629333
7.668900 -18.487000 3.169990
2.470420 -5.955300 -0.564072
7.666760 -18.490900 3.890980
5.061920 -12.214500 -0.692928
7.642450 -18.450500 4.610600
7.673760 -18.535200 -0.350165
7.626710 -18.430700 5.344610
1.206360 -2.925400 -0.847891
7.637770 -18.530600 0.349851
1.386600 -3.365820 -0.840417
7.622770 -18.512600 1.049230
1.678900 -4.077340 -0.857114
7.622190 -18.520300 1.752180
1.876450 -4.561650 -0.781234
7.605950 -18.499201 2.455910
1.945200 -4.733470 -0.628358
7.595320 -18.491699 3.166230
2.448100 -5.960200 -0.563723
7.588750 -18.484900 3.884110
5.054890 -12.319000 -0.697848
7.573570 -18.466299 4.607900
7.596870 -18.532301 -0.349607
7.557940 -18.446501 5.341510
1.199060 -2.936750 -0.849962
7.560960 -18.527599 0.349292
1.374850 -3.370640 -0.840417
7.552280 -18.515499 1.047980
7.549980 -18.528400 1.750440
1.862750 -4.573660 -0.782172
7.533100 -18.505400 2.453230
1.921930 -4.723680 -0.626165
7.529490 -18.505800 3.164360
2.424280 -5.961330 -0.563026
7.514570 -18.487600 3.879150
4.999070 -12.305100 -0.696068
7.497330 -18.463699 4.600700
7.536130 -18.559200 -0.349642
7.490910 -18.457100 5.337370
1.189530 -2.942700 -0.850479
7.492730 -18.535801 0.348978
1.362200 -3.371560 -0.839517
7.480870 -18.525101 1.047030
1.660680 -4.114450 -0.862457
7.480040 -18.541700 1.749220
1.838710 -4.557830 -0.778418
7.463520 -18.510099 2.450550
1.904030 -4.724500 -0.625434
7.453780 -18.504499 3.159660
2.404200 -5.971610 -0.563200
7.449550 -18.503300 3.877240
4.932890 -12.258600 -0.692509
7.428790 -18.470400 4.596200
7.458620 -18.553900 -0.349048
7.460290 -18.567400 5.361700
1.176890 -2.939460 -0.848409
7.427240 -18.559999 0.348943
1.354770 -3.387160 -0.842217
7.406050 -18.516500 1.045150
1.636820 -4.094420 -0.857114
7.411120 -18.547899 1.747470
1.826450 -4.573390 -0.779982
7.392980 -18.521299 2.448600
1.886790 -4.729280 -0.625190
7.381390 -18.501600 3.154970
2.379220 -5.966590 -0.561980
7.380560 -18.518299 3.874950
4.933680 -12.385200 -0.698685
7.358500 -18.481701 4.592600
7.383740 -18.545099 -0.348420
7.445110 -18.708700 5.395340
1.163060 -2.934570 -0.845821
7.355340 -18.558500 0.348455
1.344960 -3.395250 -0.843117
7.333290 -18.521799 1.044000
1.612410 -4.074550 -0.851771
7.388830 -18.681101 1.757580
1.817090 -4.594120 -0.782485
7.322760 -18.523500 2.445670
1.868910 -4.729970 -0.624459
7.310240 -18.510700 3.152150
2.362040 -5.984130 -0.562852
7.307580 -18.513399 3.868840
4.924100 -12.481400 -0.703186
7.290740 -18.489700 4.588550
7.313830 -18.557699 -0.348175
7.318860 -18.580000 5.350830
1.153330 -2.938410 -0.845821
7.281010 -18.559900 0.348001
1.324570 -3.378160 -0.837718
7.262760 -18.532400 1.043160
1.608200 -4.105740 -0.857114
7.345730 -18.753700 1.762110
1.793840 -4.582040 -0.779357
7.250820 -18.530500 2.443240
1.852390 -4.736460 -0.624459
7.240540 -18.523300 3.149960
2.335330 -5.977490 -0.561457
7.228240 -18.510799 3.862740
4.906640 -12.571900 -0.707268
7.221900 -18.504101 4.585850
7.238830 -18.557100 -0.347687
7.237120 -18.562300 5.338400
1.146740 -2.953420 -0.848927
7.204260 -18.564100 0.347582
1.313580 -3.386620 -0.838618
7.184680 -18.532801 1.041690
1.584630 -4.089640 -0.852535
9.057850 -23.376699 2.193360
1.772750 -4.577530 -0.777479
7.171390 -18.527300 2.439340
1.830720 -4.732110 -0.622996
7.166900 -18.534901 3.147460
2.313410 -5.986010 -0.561457
7.153280 -18.518900 3.858920
4.859090 -12.586100 -0.707059
7.143510 -18.503201 4.579100
7.165720 -18.570400 -0.347443
7.157920 -18.559799 5.330120
1.134530 -2.954000 -0.847891
7.130440 -18.575399 0.347303
1.301860 -3.393230 -0.839067
7.112790 -18.539101 1.040650
1.561910 -4.073150 -0.847955
8.968550 -23.400499 2.192490
1.758080 -4.589530 -0.778418
7.097050 -18.536800 2.437140
1.808510 -4.723640 -0.621046
7.095810 -18.543200 3.144650
2.297480 -6.007070 -0.562677
7.087190 -18.540100 3.858160
4.817270 -12.608600 -0.707373
7.067050 -18.497101 4.571460
7.098720 -18.589701 -0.347338
7.095840 -18.591900 5.332190
1.120600 -2.946910 -0.844785
7.063830 -18.585899 0.347059
1.291290 -3.399350 -0.839517
7.046310 -18.549500 1.039920
1.555360 -4.096660 -0.851771
8.873230 -23.383499 2.188130
1.740050 -4.587950 -0.777167
7.032730 -18.552799 2.436170
1.794240 -4.733330 -0.621534
7.021680 -18.533400 3.139010
2.276140 -6.010930 -0.562329
7.020110 -18.548800 3.855110
4.793800 -12.673000 -0.710094
7.000850 -18.507700 4.568310
7.020770 -18.570101 -0.346535
7.045080 -18.644300 5.340470
1.107420 -2.941570 -0.842197
6.990890 -18.579300 0.346500
1.284130 -3.414560 -0.842217
6.975890 -18.559099 1.039080
1.551430 -4.127530 -0.857114
8.781630 -23.375500 2.184650
1.719270 -4.578900 -0.774664
6.962790 -18.553699 2.433240
1.775620 -4.733990 -0.620803
6.950010 -18.539301 3.135890
2.249900 -6.001660 -0.560760
6.948920 -18.546200 3.849760
4.790270 -12.791700 -0.715851
6.932790 -18.522900 4.566060
6.953100 -18.587000 -0.346395
9.173320 -24.535200 7.018660
1.097820 -2.947230 -0.842715
6.916920 -18.579201 0.346046
1.270160 -3.413540 -0.840867
6.905500 -18.568300 1.038240
1.546600 -4.158680 -0.862457
8.698580 -23.402300 2.184300
1.695710 -4.564500 -0.771222
6.891080 -18.559299 2.430810
1.763230 -4.751320 -0.622265
6.881130 -18.552299 3.134010
2.229630 -6.011340 -0.560934
6.875950 -18.548300 3.845180
4.859390 -13.115500 -0.733017
6.860640 -18.526800 4.561110
6.882630 -18.596201 -0.346116
9.076900 -24.538000 7.010370
1.089530 -2.956480 -0.844268
6.849260 -18.595699 0.345907
1.260260 -3.423440 -0.842217
6.834430 -18.575399 1.037300
1.506310 -4.094040 -0.847955
8.607910 -23.408199 2.182030
1.680450 -4.572250 -0.771535
6.820090 -18.566500 2.428610
1.744580 -4.751860 -0.621534
6.810200 -18.559601 3.131190
2.212060 -6.028440 -0.561806
6.804400 -18.553699 3.841370
4.814950 -13.136200 -0.733227
6.789230 -18.532400 4.556610
6.812860 -18.606899 -0.345872
8.975260 -24.525999 6.997950
1.081850 -2.967530 -0.846338
6.777460 -18.600700 0.345558
1.249640 -3.431480 -0.843117
6.759990 -18.572901 1.035830
1.508130 -4.143550 -0.857114
8.520690 -23.423100 2.180640
1.667180 -4.585510 -0.772786
6.753890 -18.586399 2.428130
1.726620 -4.754190 -0.621046
6.739310 -18.566500 3.128380
2.195090 -6.047360 -0.562852
6.732230 -18.557100 3.837170
4.782690 -13.190400 -0.735320
6.715200 -18.530300 4.550310
6.740380 -18.609900 -0.345488
8.902740 -24.593599 7.008300
1.068860 -2.964020 -0.844268
6.708420 -18.613001 0.345348
1.236330 -3.432160 -0.842217
6.693620 -18.582100 1.035100
1.484340 -4.122920 -0.851771
8.430780 -23.430201 2.178540
1.652500 -4.595020 -0.773412
6.684940 -18.598700 2.426660
1.704650 -4.745240 -0.619096
6.666350 -18.557100 3.123060
2.169920 -6.043730 -0.561806
6.663430 -18.569401 3.834880
4.739990 -13.216500 -0.735844
6.644560 -18.537100 4.546260
6.673230 -18.617100 -0.345209
8.796380 -24.553801 6.988630
1.058510 -2.967730 -0.844268
6.640620 -18.618200 0.345034
1.226250 -3.439910 -0.843117
6.628050 -18.603399 1.035000
1.479160 -4.153970 -0.857114
8.337590 -23.427601 2.175580
1.631950 -4.585590 -0.770909
6.622560 -18.618900 2.426420
1.696880 -4.773310 -0.622021
6.596910 -18.567301 3.120870
2.144810 -6.040010 -0.560760
6.596560 -18.576599 3.831830
4.764940 -13.426000 -0.746625
6.579140 -18.548100 4.543560
6.600850 -18.619600 -0.344825
6.616350 -18.673599 5.308380
1.046090 -2.963930 -0.842197
6.566270 -18.614799 0.344545
1.212940 -3.440490 -0.842217
6.558350 -18.602699 1.033740
1.465380 -4.158860 -0.857114
8.257210 -23.447599 2.174880
1.610030 -4.574490 -0.768093
6.549620 -18.619400 2.423490
1.676920 -4.769840 -0.620803
6.533330 -18.583500 3.119930
2.125430 -6.048970 -0.560934
6.521270 -18.569901 3.825720
4.728630 -13.472700 -0.748300
6.507910 -18.552500 4.539060
5.460150 -15.565600 -0.287930
6.498790 -18.536900 5.263340
1.036380 -2.969390 -0.842715
6.498580 -18.619499 0.344231
1.196390 -3.429780 -0.838618
6.488770 -18.612301 1.033010
1.457310 -4.182490 -0.860930
1.594210 -4.577930 -0.767780
6.467620 -18.582899 2.415940
1.665010 -4.786630 -0.622265
6.463880 -18.593100 3.117740
2.100380 -6.045060 -0.559888
6.456430 -18.582100 3.823810
4.650510 -13.392100 -0.742961
6.441240 -18.559299 4.535460
5.397260 -15.560000 -0.287476
6.427720 -18.541201 5.258170
1.028010 -2.980480 -0.844785
6.424430 -18.636801 0.344092
1.183850 -3.436190 -0.839067
6.405550 -18.603100 1.031120
1.427910 -4.146960 -0.852535
6.411980 -18.632299 1.723940
1.577900 -4.587760 -0.768406
6.393630 -18.600100 2.414960
1.644030 -4.785470 -0.621290
6.386030 -18.599100 3.114610
2.077560 -6.050830 -0.559714
6.379300 -18.590000 3.820380
4.628860 -13.496700 -0.747776
6.361080 -18.558100 4.529160
5.328400 -15.554100 -0.286987
6.351470 -18.551100 5.254030
1.018220 -2.985870 -0.845303
6.354820 -18.645800 0.343847
1.170590 -3.436610 -0.838168
6.336070 -18.612101 1.030390
1.429880 -4.200240 -0.862457
6.340490 -18.635700 1.722200
1.562510 -4.595110 -0.768719
6.323560 -18.607300 2.413010
1.633070 -4.808100 -0.623484
6.309640 -18.587601 3.108980
2.051950 -6.044840 -0.558494
6.309950 -18.599199 3.817710
4.479740 -13.212000 -0.731133
6.291260 -18.565399 4.525570
5.270230 -15.561300 -0.286778
6.282960 -18.562201 5.250920
1.005320 -2.982090 -0.843232
6.282670 -18.647100 0.343463
1.157340 -3.436980 -0.837268
6.271130 -18.623501 1.029870
1.375130 -4.086120 -0.838033
6.267780 -18.635099 1.720110
1.541430 -4.585560 -0.766216
6.256670 -18.623600 2.412280
1.609950 -4.794950 -0.621046
6.245450 -18.600901 3.107730
2.030830 -6.051960 -0.558494
6.237500 -18.598801 3.813130
4.485010 -13.381000 -0.739612
6.223320 -18.577999 4.523320
5.213520 -15.563500 -0.286499
6.208490 -18.544500 5.240050
0.996128 -2.989240 -0.844268
6.210050 -18.635500 0.342870
1.153320 -3.462990 -0.842667
6.204190 -18.639601 1.029550
1.384410 -4.161690 -0.852535
6.199550 -18.647400 1.719230
1.529330 -4.600010 -0.767780
6.185490 -18.615999 2.408630
1.602180 -4.824760 -0.624215
6.175510 -18.607599 3.105220
2.013460 -6.070360 -0.559540
6.171460 -18.606300 3.810460
4.028350 -12.152100 -0.670947
6.157390 -18.585600 4.520170
5.157900 -15.577800 -0.286429
6.140080 -18.555000 5.236940
0.989838 -3.003540 -0.847374
1.134530 -3.446630 -0.837718
6.131600 -18.638399 1.028300
1.369370 -4.162520 -0.851771
6.128960 -18.641300 1.716790
1.505860 -4.582800 -0.764026
6.114900 -18.620501 2.406430
1.596470 -4.864270 -0.628602
6.105590 -18.614000 3.102720
1.992700 -6.075110 -0.559366
6.100360 -18.609100 3.806640
4.488970 -13.701600 -0.755627
6.085810 -18.586599 4.515220
5.101000 -15.588100 -0.286289
6.075270 -18.576300 5.236940
0.979348 -3.006980 -0.847374
5.148310 -15.816700 0.290338
1.125500 -3.459830 -0.839967
6.056620 -18.629299 1.026620
1.354840 -4.167280 -0.851771
6.061390 -18.655001 1.716100
1.494740 -4.603060 -0.766529
6.043740 -18.622801 2.404000
1.581930 -4.877370 -0.629577
6.035700 -18.620199 3.100220
1.973940 -6.089610 -0.560063
6.028710 -18.609699 3.802440
3.952030 -12.206600 -0.672412
6.015490 -18.591000 4.511170
5.042870 -15.594400 -0.286080
6.043070 -18.698500 5.265420
0.965294 -2.999340 -0.844268
5.149400 -16.009701 0.293549
1.110440 -3.454470 -0.837718
5.987280 -18.636999 1.025890
1.334280 -4.153290 -0.847955
5.988320 -18.651400 1.713830
1.476250 -4.600730 -0.765278
5.985960 -18.666500 2.406920
1.567920 -4.892310 -0.630796
5.964040 -18.620501 3.096780
1.949020 -6.085080 -0.559017
5.957130 -18.610100 3.798240
4.396850 -13.744000 -0.756255
5.944620 -18.593300 4.506670
4.981100 -15.589100 -0.285661
6.004790 -18.804199 5.289230
0.952477 -2.995330 -0.842197
5.035950 -15.846500 0.290234
1.100140 -3.463890 -0.839067
5.919770 -18.650200 1.025470
1.334020 -4.202830 -0.857114
5.968960 -18.816601 1.727080
1.460180 -4.605850 -0.765278
5.966940 -18.833000 2.425690
1.550840 -4.897750 -0.630796
5.896630 -18.633600 3.095530
1.922360 -6.074750 -0.557448
5.895090 -18.640100 3.800150
4.341630 -13.736400 -0.754999
5.877340 -18.606600 4.504870
4.924240 -15.598700 -0.285521
0.943753 -3.004170 -0.843750
4.969820 -15.829700 0.289605
1.083380 -3.452840 -0.835468
5.850450 -18.657400 1.024740
1.311120 -4.181240 -0.851771
5.903240 -18.837299 1.727080
1.441730 -4.603380 -0.764026
5.902940 -18.859400 2.426420
1.542030 -4.929660 -0.634208
5.827420 -18.640900 3.093340
1.896390 -6.066210 -0.556054
5.813600 -18.608101 3.789470
4.284130 -13.721000 -0.753324
5.809450 -18.617701 4.502620
4.866190 -15.604400 -0.285312
0.933260 -3.007440 -0.843750
4.962510 -16.001600 0.292433
1.068430 -3.447290 -0.833219
5.784110 -18.673901 1.024530
1.304650 -4.212040 -0.857114
5.824490 -18.815901 1.723240
1.422150 -4.597060 -0.762149
5.828860 -18.853300 2.423010
1.526570 -4.940700 -0.634939
5.758820 -18.649799 3.091460
1.874020 -6.068990 -0.555705
5.753240 -18.643299 3.792520
4.252100 -13.787400 -0.756150
5.738690 -18.619200 4.498120
4.810520 -15.617400 -0.285242
0.923323 -3.012530 -0.844268
4.949380 -16.158400 0.294981
1.063240 -3.473360 -0.838618
5.713380 -18.664301 1.022960
1.289940 -4.216570 -0.857114
5.755860 -18.826599 1.722370
1.402630 -4.590670 -0.760272
5.759540 -18.862200 2.421540
1.499460 -4.913720 -0.630796
5.691750 -18.651800 3.088640
1.848180 -6.060250 -0.554311
5.678400 -18.631300 3.786030
4.218490 -13.849900 -0.758767
5.669690 -18.626101 4.494970
4.752880 -15.614200 -0.284893
0.908325 -3.000940 -0.840127
4.852900 -16.033100 0.292398
1.048330 -3.465680 -0.835918
5.647620 -18.682199 1.022850
1.246830 -4.127080 -0.838033
5.686660 -18.835100 1.721330
1.389680 -4.602860 -0.761523
5.695240 -18.875401 2.420810
1.491760 -4.947180 -0.634452
5.620340 -18.650801 3.085200
1.821840 -6.049490 -0.552742
5.619410 -18.659500 3.787940
4.173690 -13.867700 -0.758976
5.603960 -18.631701 4.491820
4.694890 -15.619200 -0.284684
0.898368 -3.003940 -0.840127
4.806630 -16.082500 0.292991
1.038460 -3.476780 -0.837718
5.578940 -18.690399 1.022230
1.254470 -4.202680 -0.852535
5.617900 -18.832899 1.719410
1.370220 -4.596320 -0.759646
5.625920 -18.883801 2.419350
1.437090 -4.826790 -0.618365
5.550700 -18.655100 3.082700
1.796660 -6.038310 -0.551173
5.548650 -18.660101 3.784120
4.252130 -14.309100 -0.782318
5.535010 -18.638100 4.488670
4.639200 -15.631600 -0.284614
0.888971 -3.010760 -0.841162
4.693310 -15.905500 0.289466
1.023560 -3.471040 -0.835468
5.507460 -18.688601 1.021070
1.246450 -4.229630 -0.857114
5.548190 -18.839001 1.718190
1.354170 -4.601080 -0.759646
5.555480 -18.888100 2.417400
1.414080 -4.810820 -0.615684
5.481650 -18.661100 3.080510
1.777250 -6.050280 -0.551696
5.475740 -18.653000 3.778780
4.207780 -14.343000 -0.783365
5.467170 -18.647900 4.486420
4.581800 -15.638100 -0.284439
0.875753 -3.004570 -0.838574
4.681940 -16.073400 0.292223
1.009800 -3.468980 -0.834118
5.437170 -18.690500 1.020130
1.220710 -4.196250 -0.849482
5.481840 -18.856300 1.718010
1.339200 -4.609570 -0.760272
5.483430 -18.886400 2.414720
1.393400 -4.802390 -0.613978
5.415370 -18.676300 3.079880
1.754460 -6.050710 -0.551173
5.408960 -18.666401 3.777640
4.052130 -13.993100 -0.763477
5.393380 -18.636900 4.479230
4.527180 -15.654000 -0.284439
0.865794 -3.009470 -0.839091
4.649010 -16.170401 0.293689
0.999301 -3.478100 -0.835468
5.366380 -18.690201 1.019090
1.203890 -4.192940 -0.847955
5.419830 -18.888700 1.719230
1.322020 -4.610420 -0.759646
5.413640 -18.892099 2.413010
1.374990 -4.801490 -0.613247
5.343630 -18.672300 3.076130
1.733880 -6.058710 -0.551347
5.342140 -18.679501 3.776490
4.138280 -14.479600 -0.789226
5.324540 -18.642500 4.476080
4.467020 -15.650500 -0.284090
0.858977 -3.025480 -0.842715
4.514480 -15.911400 0.288698
0.989280 -3.489070 -0.837268
5.300020 -18.704901 1.018880
1.194600 -4.216010 -0.851771
5.357120 -18.919100 1.720280
1.306990 -4.618810 -0.760272
5.342800 -18.893700 2.410820
1.359840 -4.812000 -0.613978
5.273580 -18.673800 3.073310
1.706220 -6.041720 -0.549255
5.274240 -18.688601 3.774580
4.098550 -14.532400 -0.791320
5.256790 -18.651600 4.473830
4.409660 -15.656400 -0.283916
0.843199 -3.009860 -0.837538
4.447590 -15.886700 0.287965
0.976570 -3.490620 -0.836818
5.229320 -18.704100 1.017830
1.174590 -4.201240 -0.847955
5.272820 -18.872400 1.714350
1.284480 -4.600510 -0.756517
5.277350 -18.914101 2.411060
1.338770 -4.801420 -0.612028
5.204130 -18.676800 3.070810
1.676030 -6.015010 -0.546292
5.205820 -18.695499 3.772290
4.068150 -14.619700 -0.795297
5.187480 -18.654900 4.470230
4.345880 -15.638900 -0.283322
5.231690 -18.839300 5.239020
0.836290 -3.025820 -0.841162
4.438430 -16.069799 0.291001
0.956602 -3.465830 -0.830069
5.166200 -18.717501 1.017620
1.172450 -4.250740 -0.857114
6.496590 -23.569700 2.138980
1.270520 -4.612580 -0.757769
5.204980 -18.909401 2.408140
1.324420 -4.811570 -0.612759
5.140070 -18.686399 3.069560
1.656600 -6.026590 -0.546815
5.128560 -18.670000 3.763520
4.023440 -14.656900 -0.796553
5.126100 -18.673800 4.470680
4.292930 -15.649400 -0.283253
5.112500 -18.649799 5.181560
0.825743 -3.026710 -0.840644
4.353560 -15.968700 0.288907
0.951251 -3.491550 -0.835468
5.099380 -18.717199 1.016680
1.151120 -4.228080 -0.851771
1.254700 -4.614860 -0.757456
5.095920 -18.756100 2.386450
1.306900 -4.810190 -0.612028
5.076000 -18.695700 3.068310
1.633480 -6.020510 -0.545769
5.063540 -18.675600 3.761230
3.982120 -14.697200 -0.798019
5.057530 -18.666300 4.464830
4.238400 -15.653900 -0.283078
5.046590 -18.651699 5.177420
0.816204 -3.031300 -0.841162
4.311490 -16.023600 0.289640
0.938655 -3.490920 -0.834568
5.025720 -18.704000 1.015000
1.118760 -4.163620 -0.838033
5.031910 -18.740101 1.697620
1.238360 -4.615180 -0.756830
5.017760 -18.713499 2.378890
1.283420 -4.789790 -0.608859
5.007640 -18.701799 3.066430
1.617630 -6.041290 -0.547164
4.999550 -18.684700 3.759700
3.949870 -14.772100 -0.801368
4.988810 -18.670601 4.461680
4.178580 -15.649300 -0.282729
4.983940 -18.678499 5.180000
0.803635 -3.026660 -0.839091
4.382200 -16.515900 0.298262
0.927462 -3.497940 -0.835468
4.960910 -18.723301 1.015110
4.957790 -18.724800 1.694660
1.223250 -4.623300 -0.757456
4.948850 -18.717400 2.377180
1.268220 -4.800000 -0.609591
4.937800 -18.702000 3.063610
1.597040 -6.048830 -0.547338
4.938810 -18.719101 3.763130
3.900320 -14.793500 -0.801787
4.919640 -18.672899 4.458080
4.122910 -15.659900 -0.282659
4.910850 -18.665899 5.171720
